ply
format ascii 1.0
element vertex 1699
property float x
property float y
property float z
end_header
-0.279973 0.215372 0.822431
-0.220214 0.195584 0.070318
-0.148252 0.164118 -0.363584
-0.271056 0.182423 -0.182562
-0.385314 0.320970 0.407380
-1.036697 0.266847 0.543873
0.247413 0.025610 0.052608
0.200618 0.066711 0.131320
0.235984 0.056443 0.108247
0.255082 0.064416 0.108590
0.244801 0.064490 0.118791
0.228209 0.057521 0.119533
-0.006439 0.003810 0.149517
0.190417 0.050413 0.074605
0.130502 0.037375 0.056034
0.239015 0.030137 0.048101
-0.012881 -0.018615 0.157181
-0.710124 0.774233 0.447974
-0.793442 0.308174 0.524265
-0.636277 0.423279 0.609724
-0.721159 -0.658947 0.569678
-0.410683 -0.628464 0.725916
0.631081 -0.506108 0.915901
-0.909098 -0.373074 0.515241
-1.033065 0.027397 0.423505
-0.363926 0.391827 0.750450
-0.589375 -0.480520 0.687445
0.714417 -0.602539 0.941654
0.782142 -0.214798 0.964598
-0.250696 -0.486596 0.739701
-0.175791 -0.991159 0.853229
0.262599 -0.939050 0.999767
-0.336636 -0.652650 0.760933
-0.274944 -0.633937 0.813177
-0.539039 -0.117116 0.729065
0.750657 -0.607974 0.949275
0.699019 -0.450549 0.943580
-0.205368 0.396713 -0.022720
-0.546915 0.093379 0.483455
-0.423125 0.210563 -0.091528
-0.468348 0.706276 -0.160980
-0.279950 0.563625 -0.113975
-0.342390 0.086925 0.180063
-0.851102 0.030521 -0.093087
-0.220981 0.340907 0.131946
-2.291175 0.283944 2.163427
-1.868009 1.008395 1.224252
1.164091 -0.285068 1.031275
-0.454088 -0.784109 0.717478
0.770944 0.226078 0.846932
-0.781913 -0.225152 0.596366
-0.619057 0.026608 0.622749
-0.776658 -0.466467 0.556837
-0.489449 -0.893893 1.126847
-0.595836 -0.765591 0.684910
1.127311 0.144867 1.041365
0.580821 -0.388646 0.537205
0.323027 0.277589 0.823576
0.856062 -0.477135 1.003481
-0.318269 -0.214206 0.771860
0.928196 -0.409495 0.992922
0.448777 -0.327829 0.314286
-0.587336 -0.077695 0.714958
-0.431426 -0.398065 0.722748
-0.376146 -0.659690 0.736165
0.753913 -0.626430 0.939126
0.789263 -0.583602 0.722047
0.224943 0.269752 0.746085
0.654220 -0.744220 0.986837
-0.515205 -0.581951 0.711758
-0.110876 -0.854753 0.853225
-0.291896 -0.501111 0.814751
0.785623 -0.587914 0.944130
-0.572790 -0.544350 0.703383
-0.585787 -0.577275 0.702051
0.730674 0.132886 0.923822
-0.842428 -0.609290 0.542997
0.842427 -0.615083 0.961364
-0.528709 -0.260050 0.732274
0.394554 -0.111605 0.878562
-0.254879 -0.134637 0.854251
-0.491612 0.361007 0.750946
0.578738 -1.269225 -0.728788
0.237262 -1.327581 -0.069638
0.370886 -1.170451 -0.253395
0.703838 -1.276900 -1.229878
0.695378 -1.328701 -1.291907
0.553307 -0.865709 -0.835539
0.718011 -1.059916 -1.405025
0.345825 -0.358783 -0.421271
0.672143 -1.301473 -1.008297
0.350549 -0.882935 -0.457565
0.445181 -1.446899 -0.554495
0.270112 -1.308861 0.003656
0.786879 -0.831762 -1.538609
0.259702 -0.776398 -0.099718
0.763876 -0.813254 -1.470680
0.395639 -1.379432 -0.519645
0.453230 -0.838394 -0.876457
-1.198011 -0.413462 0.343173
-1.203146 -0.413747 0.348670
-0.549107 0.429664 0.714946
-0.742438 -0.025904 0.550029
-0.928179 -0.266424 0.461039
-0.995919 -0.003502 0.452096
-0.827886 0.189884 0.521327
0.807762 0.725069 0.943007
-0.747294 -0.269359 0.552404
-1.128345 0.277818 0.269443
-1.194724 -0.219419 0.327173
-0.092895 -0.158215 1.749601
-1.191648 -0.019930 0.321402
-1.183393 -0.079117 0.332118
-0.979657 -0.263709 0.445006
0.026939 -0.000123 0.817099
-0.429343 0.604938 0.505274
0.017492 0.067800 0.371613
0.034667 0.043901 0.336749
0.233401 0.175554 0.158663
0.201874 0.087933 0.140082
0.202747 0.231905 0.241179
0.022310 0.083712 0.365240
-0.352670 0.418912 0.504601
0.154984 0.085095 0.132518
-0.512111 -0.111819 0.271760
0.247762 0.164642 0.130046
-0.118088 0.223300 -0.021485
-0.905783 0.300541 0.418788
-0.676289 0.656501 0.586743
-0.975320 0.299776 0.391609
-0.670920 0.549095 0.497676
-0.903613 0.342196 0.363499
-0.871477 0.257661 0.423329
-0.820877 0.330050 0.229741
-0.586749 0.398330 0.270646
-1.103355 0.334213 0.514246
-1.079957 -0.031376 0.375316
-0.581851 0.043657 0.908769
-1.210929 0.238935 0.357647
-0.841066 -0.059842 0.510083
-0.891545 -0.446214 0.487228
-0.895239 0.087925 0.495921
0.575048 0.768249 0.818980
-0.296760 0.596717 0.782291
-0.739792 0.345511 0.256489
-0.850587 0.375283 0.174174
-0.824973 0.400475 0.224819
-0.881603 0.412341 0.211101
0.590186 -0.626218 0.900062
0.960683 -0.230371 1.012314
0.831541 -0.509862 0.972125
0.885037 -0.263790 0.980875
-0.932893 -0.529611 0.492105
-0.943147 -0.296652 0.457552
-0.910915 -0.696768 0.491550
-0.779689 -0.497718 0.558053
-0.882727 -0.177862 0.517947
-0.690756 -0.631919 0.586833
0.538219 0.248508 0.828402
0.100751 0.127035 0.805201
-0.120314 -0.107919 0.835046
-0.577850 0.352950 0.647135
-0.695608 -0.424118 0.579488
-0.942638 -0.462729 0.450959
-1.202632 0.016485 0.316214
-1.180381 -0.428756 0.348678
-1.176633 0.185007 0.390650
-0.941724 -0.461187 0.449142
-1.026918 -0.423367 0.474707
-0.911740 -0.065326 0.489564
-1.156134 0.190244 0.377866
-1.169760 0.050394 0.334958
0.560295 -0.344327 1.146207
0.883025 -0.171764 0.752480
0.893004 -0.353543 0.823502
0.898575 -0.268967 0.811820
0.839012 -0.464137 0.921728
0.779759 -0.692425 1.006318
0.847081 -0.277662 0.850284
0.851971 -0.259094 0.833577
0.886805 -0.238876 0.776007
0.708880 -0.488966 0.949759
-0.247113 -0.970092 0.804497
-0.049937 -0.621165 0.923952
-0.745532 -0.239554 0.561582
-0.397023 -1.027675 0.726298
-1.176997 0.163144 0.408849
-0.371999 -0.179581 0.754404
-1.191034 -0.427677 0.351723
0.263103 -1.060536 0.222871
-1.387605 -0.944524 1.827369
0.391744 -0.506884 -0.365547
0.370450 -0.457643 -0.308393
-5.411860 3.669125 0.948778
-10.318465 5.791831 -0.178886
0.707975 0.268242 0.582913
-7.655017 4.123919 2.755888
0.918934 -0.003416 1.005153
-0.981786 -0.265827 0.446489
-1.186207 -0.031082 0.330865
-1.132992 0.196940 0.374016
-0.596554 -0.691391 0.742534
-0.664627 -0.406231 0.551015
-0.603161 -0.320816 0.707391
-0.793785 -0.460282 0.556932
-0.435434 -1.010702 0.715930
0.816012 -0.601847 0.952998
0.746774 -0.474212 0.944535
-0.665693 -0.233948 0.595593
-0.047070 -0.068796 0.868858
-0.879807 -0.176964 0.514168
0.424215 -0.090583 0.888579
0.776480 -0.015122 0.971480
0.704769 -0.001417 0.979300
0.625362 -0.375950 0.926114
-0.647559 -0.559237 0.616134
-0.970385 -0.091809 0.459011
-0.153145 -0.610036 0.861908
-1.018136 0.039737 0.437873
-0.131432 -0.864042 0.846392
0.623947 -0.591185 0.914536
-0.849557 -0.062417 0.521382
-0.757574 -0.341390 0.553763
-0.917563 -0.528917 0.462671
-0.005439 -0.796662 0.889644
-0.618207 -0.762629 0.641576
-0.212389 -0.889598 0.829929
-0.123474 -0.729462 0.872864
-1.248350 -0.177067 0.541771
-0.930545 0.385282 0.329487
-0.914905 0.282354 0.333700
-0.789768 0.234909 0.526017
0.836046 -0.011158 0.993114
-0.107590 -1.072182 0.888307
-0.738077 -0.543017 0.764122
-0.107664 -1.051399 0.864359
0.412022 -1.150003 1.092728
-0.691718 0.797069 0.821671
0.741825 -0.812041 1.126786
-0.282949 -0.171736 0.797249
-0.194458 -0.073451 0.859993
0.462592 0.178795 0.814450
-0.548928 0.440323 0.720006
-0.208928 -0.431473 0.854492
-0.003321 -0.621343 0.897844
0.733757 -0.530444 0.942307
0.659887 0.723876 0.861243
0.263223 0.148230 0.861909
-0.568846 -0.085083 0.723379
-0.590601 -0.641661 0.697000
-0.046674 0.071032 0.415937
0.263293 0.146492 0.101705
0.403406 0.129438 0.825312
0.048499 -0.517397 0.874379
-0.747280 -0.274431 0.563724
-1.145709 -0.167487 2.305639
-0.050342 0.302836 -0.132442
-4.103073 1.313501 1.814175
0.385818 -0.174659 -0.369538
-5.021539 1.810595 2.144200
-0.784689 0.245487 0.522466
0.161180 0.084591 0.782073
0.235169 -0.831201 0.847499
0.138846 0.266142 0.720019
-0.319045 -0.156876 0.767637
-0.391172 -0.901201 0.730297
-0.609473 -0.630267 0.686093
0.585812 -0.548786 0.905427
0.614715 -0.523864 0.915497
0.608989 -0.630734 0.903632
-0.245688 -0.202784 0.851470
-0.424789 -0.743465 0.699945
-0.445027 -0.651212 0.710036
-0.568640 -0.938636 0.635463
-0.377915 0.172785 0.737107
0.288605 -1.025280 -0.790671
0.597579 -1.015723 -1.120570
0.281612 -1.132875 -0.097681
0.354429 -0.332824 -0.254972
0.543626 -1.041930 -0.842102
0.309773 -0.301268 -0.172318
0.371167 -0.129637 -0.282054
0.578381 -0.492884 -0.847150
0.349861 -0.444518 -0.426210
0.664120 -1.224663 -1.057137
0.223739 -0.531640 -0.029159
-1.127526 -0.058490 0.422501
0.618112 -0.264105 -1.136685
0.570847 -0.253491 -0.989135
0.553281 -0.006035 -1.109211
0.648806 0.047209 -1.288498
0.548375 -0.647472 -0.848091
0.592673 -0.459364 -1.007401
0.767756 -0.201820 -1.483135
0.594408 -0.210629 -1.093561
0.639495 -0.139261 -1.261798
0.516033 -0.631174 -0.705256
-0.630852 -0.366792 0.721466
-0.556218 -0.738313 0.700708
0.007316 -1.069962 0.926854
0.167651 -1.214381 0.908561
-0.362717 -0.886439 0.744451
0.372031 -1.233363 1.036021
0.298597 -1.036299 1.054155
-0.280755 -0.693438 0.824135
0.042424 -0.909655 0.980945
-0.435359 -1.006480 0.711536
-0.132607 -0.151702 0.900824
-0.794610 -0.617313 0.568940
0.006817 -1.053337 0.912284
-0.650411 -0.828451 0.596826
-0.638291 -0.268571 0.614043
-0.020046 -0.719950 0.858148
0.041239 -1.100513 0.939687
-0.388535 -0.919481 0.729839
-0.440138 -0.973220 0.725098
-0.263008 -0.619072 0.814942
-0.380329 -0.788766 0.739029
0.849542 -0.760647 1.142502
0.418615 -1.139148 1.106831
0.851960 -0.763606 1.147765
0.319047 -1.088606 0.997725
0.195246 -0.774779 0.963870
0.908949 0.106204 1.010628
0.900146 0.210370 0.980341
1.477476 0.468902 0.912441
1.447122 0.488525 0.875467
1.020821 0.486069 0.930494
0.993488 0.504481 0.955811
0.917135 0.102067 1.015769
0.765392 0.689024 0.914021
0.759322 0.266386 0.857831
0.962655 0.080228 1.159724
0.819481 0.652777 0.919717
0.994285 0.243947 0.901460
-0.586275 -0.940292 0.770093
-0.648172 -1.054258 0.710018
-0.220719 -0.233297 0.856311
-0.602329 -0.675859 0.682836
-0.744595 -1.106281 0.737448
1.163448 0.161725 1.015317
0.485823 0.432423 0.843530
1.116416 0.682169 1.103067
1.236386 0.081729 1.079478
0.714585 0.269013 0.841770
1.334993 0.155528 1.062532
1.280761 0.363011 0.947516
0.960590 0.094815 1.037104
0.870568 -0.032604 1.027910
0.681661 0.461840 0.874566
0.489649 0.486668 0.838723
1.003896 0.462314 0.949503
0.831224 0.259634 0.879698
1.528279 0.190578 1.029815
0.932708 0.803860 0.901497
0.806148 0.622493 0.943707
0.901424 0.428186 0.913964
-0.621107 0.026402 0.622037
-3.339808 -8.143060 18.959185
0.967224 -0.294113 1.002634
-0.207325 0.140868 -0.072079
-1.584257 0.178505 1.250044
-1.597379 0.784543 0.160879
-1.059124 0.401452 -0.211309
-1.655916 0.904722 1.356199
-1.263598 0.370721 0.244523
-0.537028 -0.547671 0.698933
-1.174630 0.231727 0.355688
-0.750688 0.067955 0.540104
-0.165884 -0.429710 0.879173
-1.446697 0.184530 0.688605
-0.745440 -0.228863 0.540884
-1.093870 -0.078026 0.350618
-0.859505 0.253653 0.408914
-0.840340 0.357627 0.287086
-1.060681 0.121922 0.417045
-0.102174 -0.866334 0.879139
-0.547696 0.170848 0.736597
0.605292 -0.575374 0.914262
-0.589123 0.589115 0.664721
0.772270 0.071959 1.162743
-0.272840 0.580254 0.780085
0.659703 -0.894985 -1.117535
-0.004285 -1.321692 -0.889477
0.668637 -0.654962 -1.426453
0.778567 -0.676783 -1.514439
0.590799 -0.521208 -1.031446
0.377132 -0.801526 -0.561919
0.659513 -0.403442 -1.246903
0.788137 -0.454143 -1.547444
0.844099 -0.559466 -1.396486
0.338242 -0.691082 -0.260349
0.670996 0.256949 0.854991
0.844840 -0.277127 0.840062
0.896813 -0.371576 0.888328
0.765725 -0.509708 0.888835
0.772479 -0.501254 1.010445
0.776374 -0.694277 1.008162
0.898717 -0.375808 0.904819
0.749124 -0.721708 1.043335
0.806392 -0.460280 0.892290
0.622779 -0.753584 1.806123
0.799586 -0.604638 0.969761
0.671488 -0.411909 1.090917
0.692587 -0.197579 0.983732
0.017330 0.297763 0.812828
-0.756000 -0.375221 0.549533
-0.301980 -0.536136 0.811503
-0.133566 -0.088324 0.892291
-0.761990 0.106292 0.537468
0.603001 0.027671 -1.198353
0.523860 -0.905308 -0.846853
0.639706 -0.872208 -1.034117
0.673503 -0.857724 -1.370000
0.378480 -0.312847 -0.327530
0.706602 -0.002746 -1.526606
0.409400 -0.668953 -0.540718
0.379672 -0.570002 -0.555393
-0.248954 -0.583969 0.837280
-0.699719 -0.256943 0.577826
-0.027937 0.245700 0.659108
-0.659620 -0.299214 0.592891
-0.640204 0.002060 0.604421
0.724458 -0.473973 0.945612
0.409102 -0.134629 0.882015
-0.455316 -0.718047 0.714220
0.049210 -0.794118 0.927281
-0.382570 -0.859751 0.742253
-0.575242 -1.029171 0.703219
-0.378443 0.356249 0.737609
-0.572791 -0.387523 0.715604
0.921337 0.437934 0.910379
-0.198224 -0.427601 0.800454
-0.540164 0.603159 0.736308
-0.100959 0.015378 0.328910
0.003165 -1.183956 0.917842
0.192978 -0.698000 0.873066
-0.546311 -0.470422 0.686438
-0.275958 -0.005007 0.823535
-0.421149 0.180574 0.560851
0.543055 0.426589 0.807482
0.529832 0.879511 0.803924
0.792745 0.693616 0.917230
0.047214 0.167155 0.812407
1.036119 0.169449 1.040335
-0.998243 -0.115773 0.429817
-0.434817 0.020086 0.737324
0.269048 0.145652 0.880740
-0.010533 -0.280591 0.962771
-1.018731 0.113276 0.451994
-0.921351 0.229488 0.514086
-1.094046 -0.088896 0.409635
-0.745216 -0.100677 0.559033
0.174401 0.053279 0.131470
0.251583 0.029285 0.030300
0.229593 0.058028 0.118366
-0.948343 -0.205254 0.449505
-0.587407 0.452520 0.637788
-1.171570 0.161487 0.405758
-1.119819 0.135555 0.345955
-1.048823 0.199233 0.439453
-0.745612 -0.084817 0.559102
-1.092394 0.221581 0.405606
-1.139588 0.128150 0.353961
-0.741032 -0.289655 0.555673
-0.864859 0.369067 0.307601
-0.050209 0.284064 0.216370
-0.067133 -0.101248 0.039748
-0.125887 0.008516 0.309367
-0.087618 0.042349 -0.090235
-0.214489 0.086787 0.351679
-0.504425 0.258431 0.125877
0.806722 -0.534368 0.984154
0.607319 -0.509348 0.842325
0.780076 -0.567518 0.946582
0.400682 -1.124492 1.056511
0.634100 0.797276 0.824071
-0.796846 -0.823614 0.564401
0.409622 -1.485259 -0.518566
0.233146 -1.458843 -0.000940
-2.211285 -0.872523 0.037991
0.371332 -0.902427 -0.270789
0.028041 -0.639573 0.874365
-0.345361 -0.490304 0.775071
-0.574174 -0.816070 0.735917
-0.399132 -1.026534 0.723406
-0.748916 -0.873259 0.613602
0.086554 -0.632677 0.875572
-0.599745 -0.888976 0.672573
0.066563 -0.936536 0.979767
0.200345 -0.879124 0.980973
-0.810402 -0.844943 0.589530
0.218345 -0.005450 0.033214
0.243906 0.020636 0.055165
0.178265 0.023995 0.061668
0.242835 0.030892 0.076803
0.185463 0.026133 0.067265
-0.604693 0.452203 0.617645
0.681101 -0.452756 0.933489
-0.819187 -0.284045 0.645517
-0.753955 -0.278262 0.559141
0.363509 -0.590821 -0.257464
0.693360 -0.079745 -1.508652
0.652481 -0.838460 -1.439318
0.421858 -0.016394 -0.592521
0.376143 -0.581700 -0.334676
0.775488 -0.748357 -1.505762
-0.671810 -0.598528 0.608973
-0.356251 -0.689437 0.746537
0.221457 -0.106497 0.840430
0.843375 -0.283907 0.957046
-0.762746 -0.339177 0.551357
0.025090 -0.273860 1.021137
-0.548971 0.298203 0.732439
-0.970482 -0.178604 0.461093
-0.943408 -0.269912 0.457995
-0.924476 -0.382096 0.468120
-0.948879 -0.401855 0.472321
-0.965970 -0.140092 0.449427
-0.183236 -0.453129 0.860172
-0.404288 -0.591567 0.725717
-0.787372 -0.835535 0.570294
0.244484 -0.738561 0.969767
1.125049 0.167718 0.991692
0.981707 -0.231432 1.005490
-1.128533 0.187952 0.410644
-1.096412 0.226171 0.397318
-0.854197 -0.265603 0.537501
-0.915850 -0.090855 0.483696
-0.312953 -0.345588 0.782257
-0.855024 -0.188600 0.523024
-0.938190 -0.366796 0.471723
-0.879169 -0.625972 0.534842
-0.645547 -0.639385 0.630893
-0.698286 -0.701777 0.588385
-0.797380 -0.596622 0.562538
-0.721254 -0.848079 0.581683
-0.662605 -0.529299 0.601780
-1.151499 -0.213116 0.424528
-0.848664 -0.126906 0.520625
-0.413060 -0.955904 0.731765
-0.620572 -0.819524 0.670427
0.023493 -1.010040 0.932890
-0.342814 0.357332 0.749679
0.751507 0.392345 0.885266
0.580457 0.706706 0.832132
0.496579 0.728989 0.787947
0.172757 -0.001288 0.044770
0.255667 0.063676 0.106456
0.247430 0.061250 0.111096
0.345941 0.474046 0.718375
-0.579893 -0.640095 0.726002
-0.388019 -1.041499 0.722846
-0.801600 -0.944380 0.576315
-0.568141 -0.904453 0.645393
-0.115421 -0.341281 0.892624
-0.923366 -0.091363 0.491277
-1.116879 0.173055 0.405108
-0.910432 -0.057442 0.493113
-0.760092 -0.401589 0.548860
-0.930258 -0.549315 0.468276
-0.338686 -0.565535 0.754920
-0.652892 -0.232715 0.601489
-0.586268 0.269543 0.715294
-0.714244 -0.904800 0.580378
0.189701 -0.629164 0.558937
0.122931 -0.976256 0.915617
-0.670789 -0.672500 0.632949
-0.379965 -0.790164 0.744133
-0.249231 -0.792511 0.826480
0.195622 -1.177789 0.956963
-0.653397 -0.400381 0.610027
0.076736 -0.662768 0.861562
-0.172545 -1.028227 0.806592
0.417423 -1.187626 1.055092
0.058282 -0.674574 0.887020
-0.598010 -0.296286 0.720223
-0.769194 0.363296 0.293049
-0.291275 0.168217 0.782916
0.778942 1.011757 0.818025
-0.925270 -0.281533 0.581720
-1.093621 0.226109 0.395733
-0.602304 -0.958492 0.674174
0.376333 -1.247253 1.062651
0.693519 -0.378483 0.942001
0.191828 0.059131 0.105308
0.230052 0.044543 0.099959
0.233320 0.059709 0.117504
0.236291 0.061975 0.121432
0.267538 0.084104 0.084054
0.236651 0.082849 0.099555
0.235624 0.014856 0.029123
0.259652 0.070261 0.102358
-0.185051 0.109201 0.850129
0.196045 0.111709 0.127925
-0.050521 0.009380 0.196957
-0.171827 -0.987235 0.839585
-0.688173 0.567448 0.583419
-0.830260 0.180505 0.538697
-0.693797 -0.563227 0.588557
-0.258469 -0.990965 0.813826
-0.750538 -0.286577 0.560393
-0.843765 -0.324085 0.542924
-0.906922 -0.119064 0.488456
-0.843950 -0.062133 0.509535
-0.934212 -0.369182 0.462502
-0.491878 -0.329627 0.728724
-0.624859 -0.375397 0.640384
-1.148297 0.101249 0.341950
-0.623661 -0.374420 0.642156
-1.173861 0.087671 0.335939
-1.190026 -0.155639 0.330391
-1.221393 -0.303652 0.319155
-1.186365 -0.416593 0.338017
-0.903305 -0.301432 0.478288
-0.248203 0.083749 0.863938
-0.275641 -0.680376 0.846146
-0.871560 -0.273221 0.519898
-1.192133 -0.411369 0.335889
-0.872998 -0.380587 0.457760
-1.141952 0.097591 0.332615
-0.048252 -0.680965 0.915033
0.685416 -0.592976 0.921194
-0.379549 -0.965112 0.731324
-0.597411 -0.830232 0.682325
-0.172094 -0.732721 0.847493
-0.170712 -0.914452 0.827432
-0.361699 -0.820222 0.742770
0.637538 -0.582368 0.925069
0.583949 -0.628727 0.899856
-1.172147 0.086809 0.335710
-1.190771 -0.019867 0.327716
-0.697015 -0.700685 0.583831
-0.137695 -0.703481 0.873351
0.652474 -0.627540 0.865545
0.045962 0.102144 0.020963
-0.927646 0.556687 1.106739
0.215303 0.116779 0.014699
-0.256752 -0.146230 0.774138
-0.204211 -0.106663 0.791687
-0.438127 -0.109647 0.728684
-0.378250 -0.101210 0.737771
-0.719351 0.465547 0.573437
0.237069 0.208777 0.788074
0.346186 0.142651 0.980477
-0.377827 -0.013067 0.739238
-0.608351 0.091902 0.617340
0.569231 0.778969 0.801873
0.754383 0.966767 0.813982
0.646989 0.927610 0.823251
1.235912 0.218411 0.945578
0.007345 -0.022118 0.880935
0.034178 0.130494 0.731128
0.709519 -0.174627 0.951741
1.040440 0.794795 0.897989
1.007103 0.877032 0.929856
0.925556 0.972778 0.855597
0.785808 -0.236030 0.966146
-0.899796 0.382124 2.301239
-0.694591 0.376251 2.167611
0.230278 0.060139 0.119803
0.164690 0.049340 0.076145
0.220786 0.014915 0.007231
0.246026 0.056594 0.092406
0.218398 0.067288 0.122510
0.167502 0.062747 0.151738
0.001358 0.025071 0.216539
0.134951 0.056458 0.158783
0.098524 0.055247 0.167478
0.087310 0.014040 0.004390
0.216045 0.060344 0.134219
0.194320 0.043790 0.124417
0.130052 -0.015145 0.031474
0.150465 0.054892 0.074851
0.017833 -0.022983 -0.046388
0.037557 0.276168 0.705796
0.475296 0.687970 0.791915
0.373588 0.138367 0.907677
0.590106 0.738293 0.828450
0.784793 0.988159 0.826504
0.569934 0.766359 0.807542
1.247623 0.140070 1.040491
0.769396 0.835633 0.940792
0.075192 0.046241 0.791968
0.927964 0.710864 0.943411
0.197768 0.454158 0.737643
-0.742159 -0.238950 0.563120
0.387984 0.219072 0.820258
0.772187 -0.778456 -1.508607
0.337073 -0.378642 -0.229234
0.264474 -0.684892 -0.764425
0.548229 -0.592006 -0.845664
0.273603 -0.616996 -0.134232
0.269091 -1.000600 -0.069390
0.565352 -0.995838 -0.858056
0.373243 -0.598532 -0.284001
-0.609731 -0.446081 0.673974
0.163656 -0.291682 0.827834
0.142429 -0.270936 0.834192
0.202877 0.051519 0.082995
0.237638 0.057505 0.076782
0.234567 0.058032 0.078816
0.261269 0.047306 0.094371
0.206627 0.047875 0.089201
0.268451 0.058317 0.069160
0.231904 0.052899 0.082236
0.251346 0.056309 0.122499
0.255658 0.034281 0.142073
0.256094 0.056949 0.118229
0.257382 0.052596 0.124621
0.240482 0.062567 0.121307
0.246205 0.050745 0.075377
0.217340 0.030565 0.047342
-0.308048 -0.184388 0.759783
0.612638 0.688506 0.824352
0.640675 -0.544759 0.910102
-0.560930 0.405579 0.692405
-0.352287 0.113937 0.741388
0.365248 -0.172071 0.873284
-0.565893 0.313254 0.724719
-0.687143 -0.411695 0.770656
-0.019918 0.238380 0.776080
0.868587 -0.133809 0.994502
-0.206586 -0.137466 0.879517
0.785114 -0.213063 0.972459
0.670995 0.130165 0.957188
0.496955 0.849283 0.783364
-0.716850 -0.665891 0.747891
-0.743130 0.369050 0.577113
-0.422633 -0.662784 0.724272
0.139719 0.279488 0.722068
-0.278261 -0.407690 0.810515
0.777621 -0.597621 0.945534
-0.207830 0.324102 0.893229
-0.101651 -0.672330 0.883328
-0.392467 0.168531 0.739696
-0.360174 0.274256 0.749227
-0.880795 1.111883 1.138121
0.589311 -0.520125 -1.027736
0.548083 -0.479548 -0.850442
0.382402 -0.338489 -0.362902
0.379818 -0.301252 -0.518383
0.113578 0.115943 0.259265
0.247639 0.178350 0.150052
-0.876199 0.443980 0.326578
-0.522444 0.114070 0.745232
-0.103606 -0.238541 0.888723
-0.386813 -0.190319 0.738318
-1.319739 -0.593843 1.282881
-1.193437 -0.246441 0.410139
-1.088856 0.329851 0.496429
-0.782480 0.378726 0.226677
-0.863261 0.402224 0.198023
-0.981079 0.284038 0.560203
-0.864173 0.402616 0.198057
-0.791407 0.385135 0.232742
-0.911822 0.385980 0.193860
-0.700604 0.471158 0.320866
-0.607705 0.443279 0.365831
-0.310775 0.390469 0.760636
-0.912740 0.069578 0.487407
-1.123431 -0.187295 0.443111
-1.150223 0.101686 0.344218
-0.849409 0.414635 0.246778
-0.560792 0.329945 0.217617
-0.937558 0.274015 0.507025
-0.653196 0.542955 0.456461
-0.928838 0.420150 0.228055
-0.641936 0.357723 0.603614
0.358208 -0.076463 0.871770
-0.587320 0.383265 0.298915
-0.369942 0.083982 0.745267
-0.591040 0.151000 -0.012482
-1.043205 -0.118857 0.431207
-1.171167 0.014113 0.340288
-0.378458 -0.173802 0.741790
-1.192168 -0.115698 0.420836
0.021429 -0.626101 0.855813
-1.129187 -0.056061 0.418552
-0.830764 0.369283 0.621277
-0.818436 0.329479 0.227415
-0.544137 0.622066 0.655469
-1.159786 0.201121 0.415861
-0.777485 0.265165 0.489341
-1.048248 0.208312 0.408791
-0.580365 -0.145652 0.719459
-0.051438 0.135426 0.060542
-0.048805 0.024818 -0.262204
-0.024463 0.031744 -0.241622
-0.047919 0.066767 0.017838
-0.083861 0.013336 0.824822
-1.064409 -0.114162 0.429449
-0.560961 0.510138 0.696000
-0.550797 0.612747 0.719999
-0.577984 0.631365 0.644960
-1.194243 0.379042 0.421259
-1.189968 0.186288 0.345540
-0.956645 0.206723 0.279912
-0.310684 -0.110617 0.377497
-0.748966 0.351755 0.268918
-0.157127 0.065233 0.910214
-0.598611 0.219373 0.651200
-0.759755 0.362003 0.203863
-0.583143 0.360981 0.721252
0.041848 -0.650369 0.858874
-0.245284 -0.602380 0.838999
-0.680701 -0.298714 0.594834
-0.506222 -0.359394 0.823768
-0.887252 -0.158239 0.513388
-0.847536 -0.063051 0.511259
-0.480154 -0.203642 0.737001
-0.484506 0.488231 0.760601
-0.365062 -0.533282 0.743630
-0.362042 -0.469675 0.743984
0.050179 -0.646606 0.868079
0.231206 0.027187 0.084682
0.222531 0.032641 0.072542
0.243225 0.032029 0.076891
-0.406596 -0.592158 0.729398
-0.770016 -0.478348 0.572795
-0.584319 -0.514533 0.706571
-0.763988 -0.176378 0.548421
0.599242 -0.241272 0.925224
-0.249239 0.246218 0.791817
0.747874 -0.033682 0.846461
-0.791061 0.127586 2.018991
0.771621 -0.056888 0.771946
-0.129286 0.188617 0.696174
0.782355 0.412176 1.129402
0.802273 -0.033441 0.851878
0.764652 0.231439 0.771259
0.729150 0.306140 0.867045
0.576363 -0.154510 1.455445
0.633340 0.324547 1.049939
0.585030 0.389539 1.003244
0.514309 -0.187868 1.570129
0.632100 0.083724 0.727284
0.758371 -0.041068 0.824481
0.728828 0.311776 0.878309
0.462951 0.105433 1.398047
-0.309595 0.192985 0.991029
-0.331480 0.143871 0.755594
-0.402883 0.037623 0.736583
1.336989 -0.411462 1.334558
0.489912 0.136673 0.810009
-0.913051 0.232355 0.524710
-0.293234 0.550539 0.782642
0.675474 -0.572167 0.871987
0.144936 0.194816 0.810280
1.100794 0.143761 1.011952
0.890852 -0.027242 0.995300
-0.379019 -0.725563 0.738371
0.748826 0.241880 0.834735
-0.196393 -0.101043 0.858261
0.309015 0.268597 0.751762
0.254334 -0.040024 0.847712
0.637731 -0.538891 0.921472
-0.240275 -0.536047 0.833130
-0.864349 -0.177089 0.518617
0.317636 -0.691389 0.860152
-0.763721 -0.485146 0.565783
-0.442794 -0.524449 0.716046
0.699311 -0.509304 0.923731
-0.743545 0.419994 0.580489
0.465176 0.247833 0.815739
0.055063 0.256267 0.718254
0.661064 -0.779762 -1.364166
0.584228 -0.344443 -0.975717
0.405505 -0.356243 -0.557643
-0.774502 0.058885 0.299937
-0.774134 0.217326 0.527827
-0.848746 0.058405 0.504102
-0.933892 0.022995 0.479124
-0.860623 -0.073869 0.516974
-0.825264 0.349502 0.548641
-0.482105 -0.199504 0.731014
-0.003090 -0.301126 0.836163
-0.448107 -0.168020 0.751951
-0.756508 -0.209497 0.561127
-0.671691 -0.234066 0.615376
-0.896682 0.057284 0.497832
-0.530915 -0.082760 0.747630
0.357099 0.440541 0.723989
0.033445 -0.203795 0.920640
-0.748862 0.143671 0.535940
0.893727 0.453775 0.926052
0.597528 0.433528 0.878050
1.002011 0.662150 0.970604
0.791178 -0.014050 0.973247
1.267331 0.181970 1.019325
0.701485 0.279334 0.837144
1.444428 0.461614 0.910656
1.422150 0.310341 0.993572
0.833601 0.711183 0.926266
0.929698 0.406138 0.959377
1.237570 0.206756 1.040926
1.052385 0.239871 0.917392
0.612211 -0.010873 0.948181
1.008686 0.419317 0.947025
-0.761716 0.178949 0.530258
0.619855 -0.440687 0.920931
-0.036143 -0.436291 0.926903
-0.859278 0.070088 0.501461
-0.744093 0.111639 0.537177
-0.202923 -0.610688 0.854119
1.083656 0.454218 0.960717
0.506796 -0.240934 0.897421
-0.855338 0.243287 0.519967
0.815594 -0.535653 0.964855
0.408071 -0.032450 0.874113
0.731080 -0.150227 0.959213
0.449579 0.063532 0.634513
0.922435 0.457972 0.921988
0.941574 -0.259231 0.975468
0.962379 -0.293513 0.999251
0.941467 -0.286380 0.965129
0.035899 0.199498 0.747952
0.962378 0.236577 0.894286
0.984673 -0.235161 1.011012
0.778562 -0.141474 0.953672
0.950297 0.238869 0.866525
1.218540 -0.309015 1.036587
-0.169198 -0.420202 0.875416
-0.423961 -0.654403 0.722902
-0.413007 0.059052 0.724773
-1.060048 0.123739 0.416743
-0.465088 -0.016168 0.745797
-0.162566 -0.055503 0.884081
-0.629885 0.417297 0.594877
-0.675169 -0.090708 0.579268
0.911213 0.439272 0.915460
-0.025948 -0.712304 0.828402
-0.099298 -0.744286 0.891129
-0.318300 0.602713 0.758115
-0.447893 -0.590020 0.721018
0.676658 -0.500452 0.930043
-0.110678 -0.920090 0.854630
-0.384564 -0.855434 0.734253
-0.962465 -0.074172 0.452690
-0.971460 -0.017105 0.466377
-0.950989 0.003357 0.469366
-0.475764 -0.138227 0.736838
-0.097204 -0.246309 0.921820
-0.777951 0.306693 0.501556
0.184726 -1.050789 0.957457
0.452900 -1.263290 1.192434
-0.748707 -0.110291 0.579527
-0.743694 -0.467481 0.548289
-0.805705 0.244048 0.492947
-0.086897 0.052439 0.803737
0.810826 0.654934 0.929588
-0.083270 0.089624 0.768443
0.262086 0.464741 0.722411
0.053231 0.182683 0.782228
0.707370 -0.350480 0.952005
-0.352227 -0.110640 0.740544
-0.962897 0.258401 0.472417
-1.041247 0.069346 0.426916
-1.009387 0.204220 0.471988
-0.961488 0.259831 0.474377
-1.248951 0.042614 0.661923
-0.953295 -0.170262 0.449490
0.707280 0.175078 1.097954
-0.899691 0.019449 0.494654
-1.011958 0.010833 0.454475
-0.629321 0.486557 0.611370
-0.269643 -0.443532 0.837650
-0.590693 0.015171 0.711525
-0.224055 -0.231777 0.854218
-0.742969 0.002121 0.550636
-0.349091 0.604114 0.748238
-0.474528 0.207822 0.755320
0.211716 0.152199 0.862139
-0.280412 -0.535071 0.817813
0.690491 -0.404327 0.942502
1.082787 -0.367768 0.886984
1.171760 -0.232093 1.014607
1.203420 0.179415 0.969837
1.176161 0.132944 1.004837
-0.037750 -0.373615 0.917427
0.059132 0.151625 1.268752
-0.754062 -0.140129 0.552131
-0.761136 -0.100671 0.544810
0.277017 -0.070934 0.850736
-0.764806 0.175360 0.535858
-0.039799 -0.236032 0.894197
-0.366222 0.596387 0.754917
-1.040824 0.224373 0.449160
-1.012646 0.187289 0.440766
-1.017356 -0.077346 0.433362
-0.957116 -0.185077 0.449429
-0.636909 0.413416 0.422630
0.664960 -0.605634 0.921118
0.679607 -0.542059 0.934615
0.846536 -0.612929 0.961055
-1.025746 0.128770 0.457885
-0.742843 -0.163622 0.558954
-0.746964 -0.131383 0.549494
-1.038492 0.068158 0.422731
-0.793002 0.278383 0.521655
-0.379231 0.598101 0.740858
-0.859924 -0.115879 0.515348
-0.310152 0.010624 0.775380
0.713335 -0.714565 0.961477
0.544991 0.438654 0.815743
0.955689 0.763569 0.970979
0.803682 0.663591 0.926483
0.744469 0.431087 0.886989
1.086208 0.158037 1.000136
0.422987 0.263510 0.799002
0.575325 0.712196 0.838860
0.805186 0.651835 0.919099
0.578508 0.706321 0.831809
0.757040 0.826196 0.928967
0.962558 0.770221 0.987000
0.797948 0.701278 0.925526
0.948323 0.231488 0.864763
-0.719200 -0.689903 0.579058
-0.659314 -0.207645 0.601311
-0.809506 -0.854065 0.573598
-1.005228 0.170539 0.455868
-1.058735 0.195189 0.438366
-0.976233 0.208007 0.487529
-0.975681 0.195382 0.486349
-1.036312 0.223511 0.446449
-0.408474 0.601221 0.745027
1.154038 0.184670 1.028486
0.919796 -0.349570 0.992862
0.036968 -1.136650 0.894405
-1.158141 0.188431 0.377039
-1.217772 -0.275690 0.320843
-0.019855 -0.016299 0.026677
0.081882 0.063550 0.286250
-0.052926 0.096601 0.464496
-0.694376 0.197164 0.711678
-0.047630 0.074200 0.319028
-0.143135 0.621741 0.064963
-0.455507 0.441697 -0.177439
0.168644 0.112894 0.103334
0.051445 0.030065 0.229339
-0.696040 -0.037591 -0.051362
1.225273 -0.342928 1.026356
1.169148 -0.288271 1.051191
1.212264 0.181117 0.975165
-1.080854 0.211255 0.405509
-1.013041 0.018194 0.424559
-0.773652 0.055431 0.528336
-0.745247 -0.771481 0.590044
-0.731720 0.557442 0.703678
-0.973340 -0.037616 0.458887
-0.889260 -0.157318 0.512764
-0.854891 -0.130948 0.532308
-1.043083 0.223135 0.451019
-1.028878 0.012466 0.425663
0.605226 0.222961 0.849955
0.744500 0.453215 0.892035
-0.428921 -0.267965 0.731440
-1.120989 -0.023285 0.422765
-1.117387 0.172947 0.407919
-1.021340 0.121971 0.449590
-0.934621 0.209997 0.499570
-0.186655 0.172815 0.845675
0.741744 0.484120 0.894811
-0.961524 -0.075957 0.449710
-1.057838 0.218773 0.432494
-0.593761 -0.121698 0.709423
0.626213 -0.583554 0.905045
0.253302 -0.171884 0.840848
-0.102261 -0.801860 0.864716
-0.197689 0.010798 0.840518
-1.082116 -0.181456 0.328516
-0.868163 0.355327 0.273119
0.842581 -0.530130 0.959901
0.844809 -0.644926 0.958081
0.610008 -0.547862 0.910073
-1.175135 0.052512 0.336496
-0.912484 -0.248767 0.473915
-1.018277 -0.080182 0.433375
-1.194090 0.185137 0.344730
-1.214301 -0.111185 0.405953
-0.313991 -0.050315 0.772631
0.467269 0.144258 0.818731
0.193301 -0.256612 0.824857
-0.519405 -0.642294 0.704541
0.641055 -0.500412 0.925326
-0.070257 0.281127 0.025806
0.198517 0.159085 0.343611
0.141825 0.100664 0.196252
0.260942 0.157235 0.226821
0.095753 0.078905 0.178075
0.176353 0.258864 0.140284
-0.054288 0.200411 0.120848
-0.054017 0.245274 0.059939
0.581521 -0.629310 0.900315
0.719794 -0.583748 0.943991
-0.173070 -0.672292 0.850476
-0.286896 0.033681 0.805790
-0.333328 -0.371824 0.762427
1.073376 0.167990 0.942963
0.815197 -0.642102 0.953849
-0.596790 0.623703 0.641652
0.044287 -0.988996 0.954455
0.040375 -1.105373 0.942533
0.425545 -1.205337 1.090060
-0.787421 -0.432449 0.553841
0.085754 -0.028922 0.851198
0.375606 -0.372876 0.863828
0.276622 -0.216250 0.854718
0.734447 -0.300708 0.950310
0.962819 -0.165277 1.009526
0.859732 -0.297097 0.960993
0.957783 -0.260132 1.006086
0.896548 0.194208 0.928709
-0.000224 -0.341935 0.889804
0.904189 0.200032 0.932189
0.928769 -0.383812 0.995554
-0.072821 0.119231 0.742043
0.707818 -0.005246 0.935936
0.896017 -0.014942 0.999694
0.751393 0.394027 0.894314
-0.071344 0.005970 0.841275
0.955626 -0.259281 1.001127
0.015510 -0.065660 0.900539
0.362371 -0.165662 0.866083
0.707505 -0.197939 0.935810
0.939971 -0.399458 0.981974
0.980347 -0.031437 1.011394
0.937634 -0.408173 1.000012
-0.811973 -0.894934 0.579262
-0.725796 -0.858434 0.586969
0.784433 -0.166086 0.967283
0.577608 -0.261889 0.919204
0.514073 -0.311745 0.896840
0.349934 -0.303367 0.861222
-0.765520 0.179132 0.534992
-1.190335 0.187395 0.350191
-1.206882 0.251221 0.364712
-1.107868 0.175224 0.419217
-0.341165 -0.044857 0.760328
-1.094407 0.226574 0.391834
-1.229404 0.262812 0.956444
-0.084199 0.037144 0.258256
0.005585 0.031777 -0.051144
0.093130 0.063656 0.166745
-0.093104 0.093977 0.055306
0.094297 0.063045 0.076477
0.054470 0.068990 0.066783
-0.076205 0.016282 -0.114050
-0.365405 -0.368218 0.410928
0.158340 -0.164327 0.823533
-0.126480 -0.052252 0.839947
0.820089 -0.448168 0.961624
0.814575 0.658816 0.935732
-0.552392 0.619209 0.688476
-0.374263 0.611672 0.728087
0.326657 0.443843 0.709236
0.062836 -0.591648 0.877047
0.733879 -0.491942 0.771972
-0.359770 0.453852 0.740939
-0.596680 -0.290668 0.704533
-0.374594 -0.064170 0.737637
-0.304029 -0.234044 0.840481
0.362803 0.171035 0.947441
1.122252 -0.364362 1.024523
0.954975 0.239670 0.901440
0.954320 -0.258345 0.999536
1.132458 -0.358363 1.040656
-0.002153 -0.315747 0.887257
-0.030654 0.151211 0.831762
-0.060016 0.107836 0.801633
1.166199 -0.213993 1.028024
0.703492 -0.253704 0.931878
-0.513475 0.410416 0.737633
-0.280628 0.388931 0.793649
-0.340056 0.240225 0.750281
0.655842 0.254417 0.792248
-0.401090 -0.345224 0.724544
-0.314177 -0.025653 0.768186
-0.319671 0.108121 0.760260
0.425615 -0.132559 0.885188
0.783267 -0.216998 0.964749
0.757978 -0.011244 0.967038
0.340680 -0.242540 0.863754
0.876729 -0.296896 0.982977
0.520743 -0.291132 0.910497
0.723409 0.423311 0.883231
0.086311 -0.668838 0.787828
-0.994733 -0.524836 1.061130
-1.208364 -1.553611 2.044464
0.192259 -0.657481 0.545610
0.185421 -0.814797 0.793338
0.879580 -0.006352 0.994619
0.308327 0.265386 0.765368
0.847689 -0.450579 0.966058
0.148226 0.206172 0.760853
0.603587 -0.317978 0.925485
0.933512 -0.030503 1.004731
0.873801 -0.300780 0.985925
0.900697 0.198399 0.932310
0.960868 0.409850 0.935177
0.500255 -0.297245 0.895013
-1.194236 0.186900 0.350095
-1.191157 -0.148325 0.329158
-2.993074 1.864247 2.231020
-0.658158 0.380837 0.890059
0.602840 0.226602 0.887105
0.752059 0.761477 0.940978
0.868107 0.003583 0.991863
0.733203 0.390564 0.860180
0.646968 -0.310002 -1.215029
0.710648 -0.132234 -1.488311
0.626213 -0.285034 -1.195643
0.558263 -0.006243 -1.119286
0.625347 -0.203329 -1.094066
0.635379 -0.780051 -1.043553
0.002978 -0.038752 0.892760
-0.781219 -0.543630 0.581753
-1.198288 0.236950 0.351115
-0.381850 -0.415447 0.729597
0.200471 -0.771577 0.985574
-0.746025 0.065943 0.512847
0.910651 0.720691 0.957275
0.627723 0.785632 0.799864
1.079407 0.160502 0.989941
-0.012379 0.051191 0.756055
0.587591 0.737167 0.827436
0.605470 0.735749 0.799081
0.561147 0.805421 0.817452
0.619793 0.542257 0.862875
-0.589745 -0.150520 0.772725
-0.340542 0.221785 -0.522212
0.425997 -1.218704 1.113117
-1.929110 -1.837869 2.074739
-0.627626 -0.374008 0.656916
0.004841 0.041905 0.779829
-0.713575 -0.763493 0.771631
-0.104030 -0.925117 0.867962
-0.204361 -0.879535 0.805896
0.607780 -0.714808 0.951464
-0.594067 -0.707075 0.694409
-0.121670 -1.198871 0.891300
-0.022983 -1.175084 0.905469
0.375840 -1.247847 1.055793
0.090295 -0.670161 0.789820
-0.435087 -0.881629 0.707565
-0.131885 -0.879236 0.860392
0.434737 -1.215391 1.107654
-0.170521 -0.670734 0.855199
-0.613713 -0.674328 0.684295
-0.778663 0.247629 0.519847
-0.800342 0.300942 0.523855
-0.751710 -0.337834 0.560561
-0.404948 -0.528295 0.731560
-0.627423 -0.510346 0.684221
-0.224973 -0.398563 0.840476
-0.248164 0.015864 0.831448
-0.792976 -0.033694 0.623913
-0.684964 -0.357581 0.582339
-0.503478 -0.454502 0.718292
0.921120 -0.685117 0.948003
1.187871 0.174880 0.994276
-0.712641 -0.546769 0.791856
0.417887 -0.259924 0.888886
-0.576141 -0.450757 0.702491
1.093505 0.175394 0.979783
-0.612717 -0.246846 0.649112
0.756732 0.390283 0.890402
0.490581 -0.408504 0.617970
0.593520 -0.452766 0.559029
0.855913 0.219460 1.299144
-0.345179 -0.151340 0.747949
-0.742517 -0.129456 0.562709
0.919593 -0.684479 0.946066
-0.249573 0.048698 0.859723
-0.391007 0.663938 0.628610
0.342655 0.173056 0.887323
0.646251 0.925363 0.822733
0.821267 -0.451005 0.961607
0.080167 0.105512 0.779740
1.065252 -0.361238 0.859445
-0.036529 -0.012764 0.083386
-0.208396 0.197451 -0.041392
-0.164103 0.141210 0.020170
-0.317034 -0.408562 0.780060
1.245659 0.176398 0.989060
0.795174 0.235033 0.839088
1.182243 0.389369 0.931024
0.706680 0.361744 0.878840
0.314104 0.015000 0.864549
0.827602 0.229169 1.218858
-0.237972 -0.475759 0.829041
-0.721069 0.498413 0.575036
0.842947 -0.561514 0.958339
-0.320065 -0.310129 0.770096
-0.129037 0.182007 0.643108
0.819709 -0.560706 0.955756
0.842766 -0.560527 0.960663
0.071690 -0.467847 0.883215
0.246827 0.169189 0.851506
0.590220 -0.618799 0.900087
0.687357 -0.639863 0.986232
0.635395 -0.579305 0.916212
0.492132 -0.677250 0.865681
0.673922 -0.596283 0.924960
0.805673 -0.571068 0.953165
0.765073 -0.610526 0.942787
0.690416 -0.473221 0.933941
0.668754 -0.626941 0.916112
0.499270 -0.469390 0.891005
-0.429709 -0.890371 0.714654
-0.275740 -0.203242 0.820316
-0.762987 -0.346754 0.546843
0.838028 -0.024727 0.984727
0.752127 -0.450519 0.947095
0.335389 -0.230312 -0.330752
0.367377 -0.342190 -0.581391
0.371857 -0.555105 -0.272972
0.384056 -0.412906 -0.285142
0.607135 -0.550638 0.896529
-0.581767 0.125178 0.716562
0.744107 -0.556642 0.940737
0.392854 -0.164794 0.873823
-0.765861 -0.515854 0.565249
-0.005765 -0.860218 0.928922
-0.410284 -0.625310 0.726959
0.674937 -0.579467 0.918661
0.660703 -0.502647 0.631278
0.645536 0.153555 1.024121
0.585906 -0.600861 0.907520
-0.611871 -0.546178 0.688313
-0.598494 0.317868 0.731135
0.586309 -0.603432 0.906230
-0.857086 0.053086 0.505864
-0.195120 -0.200908 0.872514
-0.170163 -0.861693 0.844209
-0.337677 -0.396151 0.763483
-0.318567 -0.160162 0.765954
0.601287 -0.501605 0.927579
0.551768 0.204013 0.921844
0.847242 -0.480635 0.963397
0.883321 -0.273456 0.982316
0.725982 -0.379046 0.949578
0.835006 -0.463441 0.967418
-0.765325 -0.511274 0.569624
0.846627 -0.644236 0.990174
0.725044 -0.155342 0.956859
0.657772 0.437617 0.867075
0.771760 -0.450984 0.954878
1.027746 0.669918 0.932153
0.781432 0.622029 0.920749
0.911199 0.442238 0.902852
0.631653 0.707587 0.868263
0.943118 0.453284 0.957871
0.710474 0.831326 0.886181
0.619510 0.521624 0.867282
1.026372 0.792571 0.888678
1.056665 0.426461 0.938539
0.785505 1.019983 0.827211
0.951233 0.689197 0.965552
0.556684 0.740527 0.836250
0.551411 0.823673 0.824292
0.540162 0.877466 0.859998
0.932515 0.732188 1.020765
0.929944 0.967789 0.849370
0.838414 -0.478925 0.961191
-0.194985 -0.060135 0.880628
-0.096132 0.234811 0.852739
-1.197541 -0.199026 0.331246
0.140361 -0.073092 0.831112
0.648427 -0.535405 0.933698
0.705992 -0.537992 0.917747
0.138505 0.283802 0.708728
0.811720 -0.505324 0.981068
0.941624 -0.003571 1.005777
-0.718990 -0.553193 0.599694
0.263440 -0.743979 0.965690
-0.165565 -0.548548 0.868373
0.004122 -1.183139 0.914187
0.335906 -1.083352 1.165986
0.311844 -1.054354 1.095333
-0.429279 -0.688194 0.720777
0.846513 -0.532269 0.975694
1.071350 -0.705915 1.434212
0.071763 -0.447453 0.819385
0.238496 0.042854 0.100092
0.216329 0.032405 0.071684
0.243150 0.039546 0.106710
0.242096 -0.000857 0.083748
0.696102 -0.545440 0.961735
-0.768475 -0.180115 0.560369
0.656929 -0.720550 0.951959
0.673397 -0.377882 0.945022
-0.759650 -0.432910 0.557371
-0.418860 -0.496399 0.724555
1.223574 -0.270418 1.048571
0.684040 -0.500509 0.936709
0.933716 -0.032150 1.005671
0.662731 -0.631393 0.918049
0.374880 0.219011 0.856336
0.095302 0.070964 0.661042
-0.047196 0.240986 0.807353
-0.028258 -0.707459 0.815557
-0.602812 -0.115131 0.652805
0.380294 -1.092065 0.995755
0.486208 0.835544 0.763600
-0.223304 0.088234 0.832824
0.190181 -0.696813 0.833435
0.689013 -0.634620 0.921531
0.740255 -0.638379 0.941100
-0.273874 -0.237636 0.841907
-0.171031 -0.852368 0.823121
-0.390160 -0.940776 0.695039
-0.558655 -0.977736 0.689247
-0.772221 -0.113094 0.561606
-0.160135 0.069121 0.894266
1.127516 -0.392265 1.011104
-0.776483 -0.512377 0.564387
0.664335 -0.550080 0.920581
-0.602285 -0.737161 0.674282
0.113131 -0.334329 0.523171
-0.340328 -0.778204 0.756090
0.666560 -0.521436 0.923637
-0.301440 -0.837861 0.774523
0.180144 -0.864020 0.788430
-0.283747 -0.561598 0.822021
-0.932309 -0.176262 0.489866
-1.192700 -0.020405 0.326665
-0.308807 0.493981 0.770474
-0.705066 -0.317099 0.578083
0.339781 -0.321581 0.852418
0.034285 0.286330 0.711608
0.748320 -0.448171 0.951959
0.684870 -0.633946 0.922758
0.511843 -0.572464 0.611235
0.486779 -0.679075 0.869338
0.680158 -0.449507 0.938722
-0.635713 -0.438241 0.647157
-0.864050 -0.135712 0.517768
-0.762470 -0.246232 0.556284
-0.137900 -0.249480 0.894852
1.193824 0.529292 1.103867
0.956970 -0.199862 0.996662
0.588460 -0.535946 0.898761
-0.512067 0.454370 0.726976
0.843557 0.252277 0.831128
0.025097 -1.192211 1.049799
0.184222 -1.086711 0.903732
-0.385467 -0.390336 0.734211
0.968053 0.241104 0.909418
-0.345568 -0.545602 0.752853
0.897146 0.202210 0.915065
0.585813 -0.548345 0.904006
-0.068837 0.147960 0.912831
0.536065 -0.165265 0.916361
-0.315432 0.171718 0.764350
0.054087 0.014700 0.805732
0.223412 -0.061537 0.840192
0.448007 0.253851 0.765505
0.556092 0.240727 0.845741
0.029480 0.017089 0.803059
0.399204 0.123876 0.811838
-0.058323 0.107757 0.806048
0.001230 0.261208 0.717554
0.334780 -0.249548 0.858867
-0.551278 -0.135824 0.730581
0.357312 -0.195395 0.866162
0.365260 -0.068571 0.874320
-0.099274 -0.128734 0.922863
-0.233876 -0.416935 0.844134
0.514722 0.142237 0.862386
0.559313 0.242847 0.838378
-0.350395 -0.276305 0.753359
-0.189051 -0.325796 0.866130
0.550936 -0.135799 0.917657
-0.060146 -0.160187 0.926778
-0.025205 -0.194478 0.931162
-0.102820 -0.433814 0.892706
-0.129038 -0.400170 0.887243
-0.329658 -0.375089 0.765292
0.025728 0.012959 0.802071
-0.099437 -0.490598 0.894989
-0.364910 0.016212 0.745632
0.419923 -0.196343 0.881689
0.588729 -0.008000 0.928406
0.342034 -0.323628 0.859290
0.429184 -0.249182 0.883025
-0.282626 0.354920 0.792618
0.353930 -0.201401 0.867543
0.211809 -0.195596 0.834720
-0.225275 -0.296250 0.857310
0.716005 -0.017536 0.958507
0.248800 -0.010929 0.849712
-0.310281 -0.281282 0.786631
0.370439 0.227243 0.887122
0.232153 -0.155192 0.839601
0.360412 -0.050133 0.872865
0.400703 -0.221903 0.879475
0.212319 -0.007343 0.840762
-0.337177 0.332870 0.752403
-0.401111 -0.347196 0.740017
-0.421286 -0.335661 0.722907
-0.389213 0.113525 0.737233
-0.356337 -0.405020 0.748614
0.533857 -0.165615 0.911790
-0.354002 -0.340981 0.751171
-0.222642 -0.229577 0.849834
0.220291 -0.064871 0.838280
0.160242 -0.164463 0.824911
-0.157979 -0.360160 0.874364
0.533658 -0.163948 0.911254
0.392365 -0.094955 0.878469
0.647738 0.009127 0.942338
0.116332 -0.188845 0.815782
0.158691 -0.164299 0.825345
0.607051 -0.370473 0.926543
0.371832 0.225293 0.881163
0.839150 -0.011480 0.983087
0.640219 -0.563110 0.907414
-0.343315 -0.211846 0.753227
-0.137825 -0.168548 0.865124
-0.679730 -0.352736 0.583965
-0.388274 0.378398 0.741524
0.450531 -0.484732 0.877238
-0.304150 0.360839 0.770111
-0.283651 -0.063109 0.799293
-0.330222 0.399651 0.753411
0.324742 -0.143509 0.864913
-0.368358 0.369387 0.741238
-0.350893 -0.086717 0.754586
-0.328958 -0.204348 0.760488
-0.368420 -0.280170 0.739248
-0.629858 0.039138 0.612737
-0.617874 0.026333 0.618273
-0.332317 -0.081713 0.753467
-0.536037 -0.010665 0.739037
0.085159 0.217441 0.774652
-0.346025 0.207618 0.751274
-0.566798 -0.261587 0.722512
0.215850 -0.197607 0.839534
-0.409529 -0.075609 0.735517
-0.035058 -0.561126 0.939873
-0.560203 -0.198452 0.725745
0.376053 0.223676 0.872397
0.583224 -0.596222 0.900223
-0.322620 0.272263 0.757693
-0.370182 0.304713 0.742037
-0.130386 -0.440746 0.904714
0.144533 -0.610769 0.983567
-0.426860 -0.190231 0.725835
0.692987 -0.196205 0.946492
0.587753 -0.518879 0.907712
0.599968 -0.310616 0.920739
0.707505 -0.341880 0.947726
0.781749 -0.215838 0.964454
0.631911 -0.512718 0.921809
-0.153976 -0.112871 0.853020
0.365985 -0.067036 0.873452
-0.090577 -0.165128 0.907355
-0.362482 -0.014709 0.742923
-0.386166 -0.153338 0.738660
-0.371666 -0.111435 0.740808
-0.482142 -0.203088 0.732940
-0.216447 0.015502 0.868617
-0.225184 -0.044075 0.854307
-0.260122 0.113238 0.857272
0.394673 -0.053116 0.880339
0.335303 -0.177778 0.861212
-0.273685 -0.088799 0.834596
0.316119 -0.191507 0.856498
0.605200 -0.470624 0.900439
-0.589134 -0.415720 0.674890
-0.529407 0.053484 0.742862
-0.501164 -0.010850 0.742216
-0.350534 0.059002 0.746059
0.358004 -0.202103 0.866835
-0.263653 -0.319736 0.838762
-0.425951 -0.269372 0.733294
-0.412720 -0.140969 0.733292
-0.170568 0.244082 0.856722
-0.500485 -0.392190 0.721291
0.242798 -0.043499 0.847170
0.518274 -0.376150 0.897911
0.246954 -0.175805 0.841296
-0.363395 -0.198393 0.744215
-0.562126 0.088298 0.727747
-0.565992 0.313222 0.723686
0.424092 -0.217641 0.878143
0.238648 -0.053170 0.845884
-0.382059 -0.475612 0.732631
0.551997 -0.134875 0.915681
-0.334029 0.168433 0.756940
0.230413 -0.178785 0.844445
0.079899 0.239069 0.788014
-0.330685 -0.019311 0.759725
-0.308563 -0.117315 0.777310
0.494242 -0.480749 0.893159
-0.451627 0.112664 0.739731
-0.229933 -0.356447 0.848486
0.639726 0.200459 0.856257
-0.659800 0.184084 0.604227
-0.601394 -0.246553 0.705146
0.291080 -0.295927 0.849825
0.274851 -0.321391 0.842879
0.354955 -0.201903 0.866223
0.419951 -0.064405 0.885354
-0.337644 0.301037 0.751700
0.556148 -0.392344 0.906195
0.324059 -0.139466 0.861430
0.589792 -0.468416 0.910353
0.448184 -0.377776 0.884900
0.418575 -0.264412 0.879403
0.039305 -0.265997 1.036430
-0.751977 -0.201544 0.554108
-0.402530 -0.015040 0.732561
-0.463661 0.446119 0.739886
-0.346466 -0.007703 0.755373
-0.062900 -0.037637 0.856276
0.662881 -0.634191 0.922571
-0.391321 -0.171036 0.736527
0.607636 -0.326297 0.930000
-0.599614 0.062307 0.724668
-0.103384 -0.309959 0.912144
-0.269108 -0.383310 0.835975
-0.577354 0.187062 0.717111
-0.355038 0.078562 0.742523
-0.604524 0.154241 0.635318
-0.005697 -0.292202 0.889365
0.690333 -0.376213 0.941573
0.588593 -0.546893 0.905467
-0.285655 0.316884 0.777729
-0.371589 0.305459 0.740477
-0.676540 0.232029 0.588385
-0.668899 0.247992 0.583317
-0.186309 -0.145256 0.860527
-0.525687 0.461397 0.752269
-0.649952 -0.106614 0.605680
-0.642707 -0.025002 0.608894
-0.636864 -0.102872 0.609302
-0.488283 -0.265202 0.734675
-0.310535 0.235720 0.771100
0.394847 -0.134697 0.879138
-0.357977 0.434086 0.748772
0.593646 -0.469236 0.913716
-0.191663 -0.387918 0.866794
-0.101156 -0.186455 0.910814
0.281763 -0.321377 0.856046
-0.651827 0.297849 0.597940
-0.682206 0.039088 0.590848
-0.504408 -0.104106 0.735921
-0.609626 0.091505 0.620797
-0.537682 0.316874 0.756885
-0.367042 0.440834 0.775300
-0.158191 -0.302385 0.873931
-0.210240 -0.261987 0.880543
-0.739316 -0.100342 0.554888
-0.788029 -0.466229 0.547124
-0.557928 0.502807 0.692191
0.417100 0.008648 0.890485
0.738957 0.476509 0.886513
0.161057 -0.293207 0.821973
0.668649 -0.440050 0.929736
-0.390776 -0.080705 0.737237
0.034419 0.124385 0.739461
-0.605057 -0.128372 0.703744
-0.515903 0.179029 0.751216
-0.341809 -0.262868 0.752462
-0.342042 0.381592 0.757918
-0.756035 -0.080961 0.536891
-0.828054 -0.080622 0.536183
-0.101267 -0.491936 0.853065
0.601774 -0.445745 0.920269
-0.388989 -0.217575 0.735938
-0.339288 -0.146077 0.753722
-0.349177 -0.220328 0.756586
0.663152 -0.011731 0.944562
-0.020232 -0.069760 0.871011
-0.099815 -0.309844 0.910212
-0.363194 -0.418644 0.747910
0.060519 0.072108 0.763169
-0.498603 0.018843 0.748424
-0.190738 -0.268084 0.870108
-0.375226 0.241922 0.738643
-0.338769 0.104862 0.756374
-0.507247 0.239340 0.752227
-0.582788 -0.228642 0.717749
-0.050010 -0.291754 0.914926
0.753818 -0.476197 0.952448
0.491457 -0.367404 0.887542
-0.353952 -0.026218 0.747303
-0.529457 -0.149981 0.747169
-0.378964 -0.077879 0.739948
-0.619343 -0.021840 0.620025
-0.513365 0.131427 0.740279
0.146645 -0.267289 0.802946
0.156945 -0.163138 0.821784
-0.058432 0.103244 0.805601
-0.563900 0.476511 0.717714
-0.578589 0.252670 0.724306
-0.205010 0.011501 0.804666
