ply
format ascii 1.0
element vertex 1202
property float x
property float y
property float z
property uchar red
property uchar green
property uchar blue
end_header
0.496069 1.325917 1.555897 161 94 150
1.310506 0.786983 0.935898 147 108 150
1.379781 0.654177 1.260550 144 111 150
0.089332 0.875693 0.967783 149 106 150
1.293771 1.155065 0.818010 156 99 150
1.357833 0.809935 0.830761 148 107 150
1.358361 0.656792 0.993612 144 111 150
1.183853 0.826730 0.980461 148 107 150
-0.154380 0.774219 1.037474 147 108 150
0.737130 1.638188 1.395646 169 86 150
0.041977 1.120361 0.970985 156 99 150
0.668124 0.690737 1.031575 145 110 150
-0.050409 0.766688 0.966097 147 108 150
0.523342 0.465208 1.009777 139 116 150
0.890345 0.128038 1.091395 130 125 150
-0.213698 0.799925 1.047912 147 108 150
0.781375 0.456736 1.002006 139 116 150
0.340480 0.694197 1.141904 145 110 150
0.965571 0.475888 1.053281 139 116 150
1.999037 -0.022674 1.050218 126 129 150
1.395300 0.253892 1.056892 133 122 150
1.757792 0.082624 1.100813 129 126 150
1.715597 0.250146 1.070370 133 122 150
1.164272 -0.608725 1.037247 111 144 150
-0.237667 -1.131204 0.924313 98 157 150
-0.183580 -0.511617 1.005448 114 141 150
-0.202026 -0.453944 0.985670 115 140 150
0.297047 -0.038681 0.997232 126 129 150
0.644883 -0.615163 1.030300 111 144 150
0.667938 0.075121 1.131347 129 126 150
1.390479 0.543283 1.043998 141 114 150
-0.014199 -0.166179 0.966162 123 132 150
0.575519 -0.284499 1.008706 120 135 150
1.230983 -0.633644 1.029354 111 144 150
1.385154 0.400213 1.093286 137 118 150
0.688313 -0.795872 1.026771 107 148 150
1.515434 -0.811076 1.092398 106 149 150
-0.164495 0.753134 1.044097 146 109 150
-0.160474 0.740045 0.975788 146 109 150
0.985715 0.240229 1.083642 133 122 150
0.975992 0.240151 1.057609 133 122 150
0.966058 -0.021043 1.086455 126 129 150
0.322916 0.774209 1.115971 147 108 150
0.552568 0.677483 1.088479 144 111 150
1.079813 1.106476 0.838049 155 100 150
1.254765 1.263783 0.831633 159 96 150
0.580082 0.641360 0.506345 143 112 150
0.373184 0.434211 0.671782 138 117 150
2.001653 -0.018002 1.053913 127 128 150
0.455757 0.121723 0.998909 130 125 150
0.746622 0.544366 0.981960 141 114 150
1.401060 0.835903 0.848417 148 107 150
1.562284 1.159809 0.776706 157 98 150
0.142886 0.870854 0.997022 149 106 150
1.517908 0.527685 1.049175 140 115 150
1.187501 0.763898 0.935954 146 109 150
1.668644 -0.059393 1.090131 125 130 150
0.341614 0.514389 0.986503 140 115 150
1.562511 -0.667138 0.994573 110 145 150
1.533952 -0.413160 1.054303 116 139 150
1.025756 0.058575 1.000718 128 127 150
1.048992 -0.045970 1.057718 126 129 150
0.313240 -0.174700 1.003517 123 132 150
1.076513 0.009254 1.025433 127 128 150
1.173854 -0.511839 1.016744 114 141 150
0.161183 -0.384247 1.001880 117 138 150
1.292880 -0.080441 1.068910 125 130 150
0.134454 -0.287007 0.958876 120 135 150
1.548583 -0.166595 0.977454 123 132 150
1.649411 -0.374200 1.052891 117 138 150
1.007588 -0.869389 1.106689 105 150 150
1.654089 -0.374035 1.058498 117 138 150
1.912650 -0.649499 1.054977 110 145 150
0.906416 0.334088 1.000574 136 119 150
0.508553 0.514961 1.132525 140 115 150
1.177402 0.756004 0.917021 146 109 150
1.609744 -0.278206 1.054123 120 135 150
1.083562 -1.031670 1.112209 101 154 150
1.579226 -0.820515 1.084824 106 149 150
0.734429 -0.941874 0.998861 103 152 150
1.608800 -0.214866 1.056976 122 133 150
1.105172 -0.250798 1.017915 121 134 150
-0.127954 -0.720132 1.031505 109 146 150
1.500703 -0.726414 1.092800 108 147 150
1.733870 -0.873133 1.071015 105 150 150
0.863791 -0.648230 1.101565 110 145 150
0.733264 -0.183879 1.118410 122 133 150
0.668884 -1.075543 1.057666 100 155 150
0.667907 -1.074944 1.054541 100 155 150
1.347361 -0.931246 1.045557 103 152 150
1.373856 -1.006346 1.058353 101 154 150
0.747176 -0.928353 1.016870 103 152 150
1.392593 0.100829 1.047945 130 125 150
0.404929 -0.995787 1.037051 102 153 150
1.110939 -0.351317 0.989223 118 137 150
0.428153 -0.999959 1.045603 102 153 150
0.558849 -0.422765 1.012088 116 139 150
0.214438 -0.570115 0.955398 112 143 150
-0.478393 -0.793876 0.896277 107 148 150
-0.167169 -1.110419 0.961169 99 156 150
-0.574146 0.568516 0.713566 141 114 150
1.297309 0.905210 0.749019 150 105 150
0.963064 0.257829 1.006832 134 121 150
1.292142 -0.209326 1.089452 122 133 150
0.363372 0.423773 1.009750 138 117 150
1.793006 -0.236839 1.015042 121 134 150
1.257958 0.594279 1.064564 142 113 150
0.464476 0.262151 0.909761 134 121 150
0.677613 0.876256 1.034569 149 106 150
1.279350 0.511023 1.059944 140 115 150
1.231580 0.806078 0.786757 148 107 150
1.405230 0.662044 0.976186 144 111 150
0.503284 -0.746865 1.058246 108 147 150
1.754416 -0.075031 1.062104 125 130 150
0.717733 -0.137579 1.108947 123 132 150
1.201585 0.382457 1.043649 137 118 150
1.361321 0.334143 1.054954 136 119 150
1.362868 0.331289 1.050435 135 120 150
1.262879 0.043328 1.077653 128 127 150
0.313954 -0.129920 1.015833 124 131 150
1.778321 -0.168874 0.931151 123 132 150
1.779340 -0.127135 0.930978 124 131 150
1.319354 0.469817 1.051855 139 116 150
0.803551 0.483031 0.963612 139 116 150
0.732479 0.745574 0.967804 146 109 150
1.360539 0.774007 0.867133 147 108 150
1.511906 -0.010620 1.066300 127 128 150
0.263451 -0.039765 2.549381 126 129 150
1.098481 -0.252099 1.006360 121 134 150
-0.466666 0.635979 0.581943 143 112 150
-0.410118 0.601641 0.696655 142 113 150
-0.267675 0.686242 0.704157 144 111 150
-0.488986 0.639665 0.627536 143 112 150
-0.335308 0.686294 0.647373 145 110 150
0.103706 0.385812 0.973962 137 118 150
-0.004247 -0.800183 0.869402 107 148 150
0.535552 -0.183713 1.021195 122 133 150
-0.046693 -0.864075 1.031006 105 150 150
0.198360 -0.915290 0.956179 104 151 150
0.610102 -0.790061 1.031876 107 148 150
-0.413213 -0.234954 0.862088 121 134 150
0.967137 -0.357541 1.055338 118 137 150
1.336072 0.139167 1.059188 131 124 150
1.037854 -0.179444 1.012878 122 133 150
0.265217 -0.058067 0.989892 126 129 150
1.253444 0.093043 0.972224 129 126 150
1.165750 0.175096 1.042266 131 124 150
-0.372808 0.677289 0.736357 144 111 150
-0.112293 0.984688 1.020755 152 103 150
0.799869 1.089277 1.107436 155 100 150
0.977338 0.027887 1.089568 128 127 150
-0.410415 0.639059 0.660099 143 112 150
-0.258891 0.656310 0.745208 144 111 150
-0.400137 0.682058 0.599266 144 111 150
0.246013 0.661020 1.017117 144 111 150
-0.009634 0.028001 0.985337 128 127 150
-0.882369 0.526707 0.402199 140 115 150
-0.271390 0.658594 0.701794 144 111 150
-0.455006 0.670481 0.560088 144 111 150
0.121717 0.810847 0.984011 148 107 150
-0.643521 0.487234 0.768003 139 116 150
0.520449 0.680736 1.112961 144 111 150
-0.510366 0.541622 0.763720 141 114 150
0.759062 0.660934 1.170991 144 111 150
-0.364049 0.588167 0.773699 142 113 150
0.600483 1.187174 1.087363 157 98 150
-0.725100 0.193742 0.794547 132 123 150
-0.391189 0.646752 0.638613 143 112 150
-0.544744 0.645074 0.565291 143 112 150
-0.339149 0.656189 0.662068 144 111 150
0.877623 0.050184 1.104807 128 127 150
1.306427 -0.599120 1.046489 112 143 150
1.880830 -0.177254 0.935469 122 133 150
1.693586 -0.243369 1.076583 121 134 150
1.219767 0.701854 0.939390 145 110 150
0.360244 -0.178795 1.002585 122 133 150
1.895826 -0.174011 0.951869 123 132 150
1.115425 0.705576 1.035555 145 110 150
1.267766 0.316737 1.066214 135 120 150
0.947766 0.245103 1.033375 133 122 150
1.916068 -0.308418 1.050602 119 136 150
-0.348533 0.613293 0.773279 143 112 150
0.242379 1.081428 1.103313 155 100 150
0.254031 0.938912 1.067872 151 104 150
-0.318395 0.714283 0.587314 145 110 150
-0.584298 0.378283 0.862511 137 118 150
-0.248433 0.686742 0.661051 145 110 150
0.171164 0.271478 0.973617 134 121 150
-0.280309 0.610904 0.773491 143 112 150
0.242068 0.658302 1.002092 144 111 150
0.437112 0.599555 1.154384 142 113 150
-0.773021 0.138163 0.770636 131 124 150
-0.247213 0.736596 0.606647 146 109 150
0.181080 0.582705 0.996766 142 113 150
-0.255077 0.723932 0.611567 145 110 150
0.455913 0.549756 1.172530 141 114 150
0.346005 1.209254 1.195141 158 97 150
-0.224115 0.758181 0.565558 146 109 150
0.565471 0.494104 1.113491 140 115 150
-0.465253 0.654737 0.593742 144 111 150
-0.560260 0.670058 0.511103 144 111 150
0.799478 0.167393 0.969774 131 124 150
0.071175 -0.453843 0.950693 115 140 150
1.410141 -0.571294 1.076966 112 143 150
1.277384 -0.934906 1.050632 103 152 150
1.102819 -0.515896 1.026819 114 141 150
1.441128 0.215991 1.045557 133 122 150
1.190247 -0.876596 1.063363 105 150 150
0.796253 0.219892 1.015017 133 122 150
1.447351 -0.282318 1.061487 120 135 150
1.690904 -0.109222 1.086545 124 131 150
-0.121126 0.689613 0.895731 145 110 150
-0.613397 0.346557 0.849197 136 119 150
-0.347392 0.290833 0.906768 134 121 150
-0.222134 0.745028 0.574590 146 109 150
0.539271 0.363709 1.155427 136 119 150
0.716675 1.019304 1.143796 153 102 150
-0.044506 0.108502 0.962902 130 125 150
-0.187490 0.811211 0.500314 148 107 150
-0.309913 0.213689 0.925686 132 123 150
-0.433249 0.197763 0.916085 132 123 150
0.804902 0.490652 0.981215 140 115 150
1.142109 0.819267 0.890881 148 107 150
1.409881 -0.297965 1.077043 119 136 150
1.127769 0.678992 1.093387 144 111 150
0.016068 0.139811 0.994812 131 124 150
1.723971 -0.033279 1.080549 126 129 150
0.107593 -0.876303 0.993171 105 150 150
0.193329 -0.755137 0.890905 108 147 150
0.612097 0.212511 1.047166 132 123 150
-0.784238 -0.975667 1.073756 102 153 150
0.418767 -0.398890 1.020139 117 138 150
0.320197 -0.204769 1.007823 122 133 150
-0.007937 -1.208954 0.993491 96 159 150
-0.244214 -0.307470 0.982160 119 136 150
0.476959 -0.884053 1.040927 104 151 150
-0.210804 -0.876673 0.981866 105 150 150
-0.472392 -0.093920 1.032223 125 130 150
0.857887 0.455347 1.039402 139 116 150
0.453519 0.427205 1.019200 138 117 150
0.289024 -0.792613 0.974910 107 148 150
-0.731107 -0.860173 0.812042 105 150 150
0.410890 -1.139873 0.991675 98 157 150
-0.407379 -0.851198 0.928650 105 150 150
0.064023 0.787870 0.972239 147 108 150
-0.332190 0.651894 0.706808 144 111 150
-0.257772 0.675482 0.714292 144 111 150
-0.774662 0.157405 0.856547 131 124 150
0.188945 0.138204 0.990121 131 124 150
-1.054764 -0.231185 0.722793 121 134 150
-0.134507 0.649158 0.902462 144 111 150
-0.288948 0.632459 0.741593 143 112 150
0.178032 -0.791089 0.981322 107 148 150
0.536727 -0.214931 1.032290 122 133 150
0.762022 -0.271182 1.204067 120 135 150
-0.485781 0.622223 0.672718 143 112 150
1.103844 0.997821 0.819795 152 103 150
1.532069 0.300304 0.985345 135 120 150
0.982823 0.026117 1.003964 128 127 150
1.548365 0.472010 1.043329 139 116 150
0.563416 0.869499 0.905816 149 106 150
1.208847 0.935947 0.969358 151 104 150
1.360725 0.786300 0.880479 147 108 150
1.025480 0.968913 0.935376 152 103 150
0.858742 -0.029510 1.097253 126 129 150
-0.449744 0.587244 0.746251 142 113 150
0.524540 0.912994 1.074970 150 105 150
-0.082945 1.026792 0.965665 153 102 150
0.762231 -0.154604 1.165537 123 132 150
1.462994 0.795898 1.444872 147 108 150
1.472154 0.028034 1.189077 128 127 150
1.634839 0.523448 1.101157 140 115 150
0.731791 0.907731 0.946907 150 105 150
1.397165 0.833298 0.859648 148 107 150
0.564400 0.192420 1.165948 132 123 150
0.533750 0.284490 1.092813 134 121 150
-1.031454 -0.621222 0.730793 111 144 150
-1.024043 -0.432360 0.740839 116 139 150
-0.620352 -0.348559 0.820252 118 137 150
-0.887016 -0.372346 0.764642 118 137 150
-1.016299 -0.259089 0.731534 120 135 150
-0.914453 -0.172302 0.754802 123 132 150
-0.904522 -0.573672 0.732553 112 143 150
0.179928 -0.700260 0.968398 109 146 150
0.311969 -0.178765 1.002469 122 133 150
1.445363 -0.135235 1.067515 124 131 150
0.230409 0.086261 1.017366 129 126 150
0.672722 0.368541 0.809828 136 119 150
1.509331 -0.321768 1.062870 119 136 150
0.784699 0.450015 0.918608 138 117 150
0.769614 0.694087 0.957857 145 110 150
0.596067 0.425526 1.088061 138 117 150
0.390444 -0.306963 1.049463 119 136 150
1.092880 -0.523900 1.026978 114 141 150
0.971831 0.433136 1.116255 138 117 150
0.311922 -0.088031 1.012714 125 130 150
1.539116 0.687320 1.072950 145 110 150
0.048759 0.198007 0.992584 132 123 150
1.317316 -0.327271 1.053997 119 136 150
1.367469 -0.079297 1.062528 125 130 150
1.493463 0.131830 1.082939 130 125 150
1.167251 0.927961 1.055543 151 104 150
1.502272 -0.318454 1.057795 119 136 150
1.099569 -0.254324 1.009697 121 134 150
1.205271 0.565796 0.989303 141 114 150
0.183710 -0.481474 0.998141 115 140 150
0.597610 -0.353059 1.023907 118 137 150
1.074533 -0.396882 1.025960 117 138 150
0.883132 -0.586118 1.105240 112 143 150
0.166491 -0.406677 1.005221 117 138 150
0.087540 -0.066088 1.016425 125 130 150
1.145584 0.275912 1.045345 134 121 150
1.657634 0.136542 1.080613 130 125 150
0.410020 -0.320700 0.964995 119 136 150
-0.332867 -0.182514 0.918854 122 133 150
-0.599558 0.300193 0.863779 135 120 150
-0.402526 -0.045255 0.928857 126 129 150
-0.220400 -0.196613 0.960190 122 133 150
-0.044692 0.591612 0.952742 142 113 150
0.869643 0.172286 1.075221 131 124 150
1.303715 0.470033 1.095923 139 116 150
-0.077857 0.853689 0.927070 149 106 150
-0.005845 0.399608 0.968081 137 118 150
0.841688 0.535799 1.000963 141 114 150
-0.163164 0.752920 1.042159 146 109 150
-0.245325 0.685704 0.800256 144 111 150
0.298825 0.495957 1.018761 140 115 150
0.316713 -0.083523 1.009155 125 130 150
0.832470 0.518061 0.976983 140 115 150
0.823124 0.641141 1.043132 143 112 150
-0.171543 0.760401 0.603546 146 109 150
0.690721 1.166708 1.014220 157 98 150
-0.080098 0.890119 0.992669 150 105 150
-0.213727 0.671451 0.752161 144 111 150
0.541938 0.979271 0.979119 152 103 150
0.466188 -0.537368 1.045490 113 142 150
0.309960 -0.091346 1.013674 125 130 150
1.737599 -0.295406 0.953696 119 136 150
1.464683 -0.543976 1.080313 113 142 150
1.157697 0.941575 1.052288 151 104 150
1.722442 0.572298 1.622960 142 113 150
1.418769 0.586755 1.104772 142 113 150
1.320455 0.798633 0.956902 147 108 150
1.435037 0.688448 1.014482 145 110 150
1.492966 0.392710 1.090400 137 118 150
1.142944 1.208481 0.888208 158 97 150
1.395746 0.138853 1.138839 131 124 150
1.641297 0.410143 1.409395 137 118 150
1.255355 0.195804 1.180339 132 123 150
1.267166 1.271234 0.847582 159 96 150
0.817735 0.631059 1.011625 143 112 150
1.336246 0.803860 0.962353 147 108 150
0.029698 0.143036 0.977852 131 124 150
0.214598 0.154238 1.014508 131 124 150
1.159633 0.941162 1.063493 151 104 150
1.455788 0.260764 1.149792 134 121 150
1.176952 1.245156 0.845061 159 96 150
-1.242192 -0.370666 0.690661 118 137 150
-1.324469 -0.627541 0.677297 111 144 150
-0.894020 -0.252327 0.757753 121 134 150
-0.656556 0.333553 0.867331 136 119 150
-0.017922 0.200682 0.956782 132 123 150
-0.571464 0.142240 0.834079 131 124 150
0.699643 -0.046360 1.051691 126 129 150
-0.429823 0.278555 0.894945 134 121 150
0.237874 0.012312 1.000790 127 128 150
0.668159 0.437210 1.107793 138 117 150
1.060142 -0.838512 1.066802 106 149 150
0.730265 -0.900366 1.036648 104 151 150
0.624938 -0.526991 1.020345 114 141 150
0.371980 -0.279828 0.999813 120 135 150
0.332018 -0.142086 0.992544 123 132 150
0.360029 0.033526 0.998866 128 127 150
0.314374 0.506981 0.993348 140 115 150
0.312678 -0.092769 1.010933 125 130 150
0.206787 0.521673 0.984904 140 115 150
0.722828 0.633165 0.966217 143 112 150
0.024423 -0.741665 0.996680 108 147 150
0.135877 -0.667338 0.945767 110 145 150
-0.284083 -0.494613 0.977883 114 141 150
-0.871071 -0.968506 0.852995 102 153 150
0.574088 -0.693023 1.025119 109 146 150
-0.545924 -0.954863 0.873308 103 152 150
0.224549 -0.960590 0.978191 103 152 150
-0.269931 -0.677776 0.902759 110 145 150
0.628471 0.018287 1.112411 127 128 150
0.669356 -0.690367 1.043926 109 146 150
0.662785 -0.696126 1.029979 109 146 150
0.663714 -0.843750 1.035463 105 150 150
0.136552 -0.639806 0.952561 111 144 150
0.386518 -1.118459 0.968057 98 157 150
-0.099876 -0.455326 0.958869 115 140 150
0.445941 -0.940132 1.026044 103 152 150
0.402811 -0.343483 1.015137 118 137 150
0.582353 -0.686591 1.026185 109 146 150
0.375547 -0.302526 1.025372 119 136 150
-0.688750 -0.530147 0.829233 113 142 150
0.858767 1.031879 1.155374 153 102 150
0.667121 -0.852955 1.124407 105 150 150
-0.434808 -0.957957 0.894747 103 152 150
0.367099 -0.244999 1.012793 121 134 150
-0.257832 -0.990219 0.923941 102 153 150
0.093339 -0.885275 0.986606 104 151 150
0.483904 0.551674 1.020644 141 114 150
0.606560 -0.555921 1.019579 113 142 150
-0.176481 -0.637939 0.338743 111 144 150
-0.079010 -0.677133 1.112069 110 145 150
0.321117 -0.205566 1.009058 122 133 150
-0.112832 -0.371540 0.965901 118 137 150
0.009883 -0.373584 0.908511 117 138 150
0.108573 -0.183617 0.952889 122 133 150
0.162035 -1.147834 0.998737 98 157 150
-0.322599 -0.605863 0.878044 112 143 150
-0.847724 -1.100726 0.922321 99 156 150
-0.373794 -0.205997 0.989831 122 133 150
0.795236 -0.413001 1.161551 116 139 150
0.163594 -0.753781 0.971138 108 147 150
0.551353 -0.841316 1.074302 106 149 150
0.795992 -1.016357 1.038839 101 154 150
-0.362921 -1.126795 0.886618 98 157 150
0.175031 -0.409014 0.962713 117 138 150
-0.464032 -0.809914 0.898456 106 149 150
0.616424 -0.837290 1.043918 106 149 150
-0.359940 -0.199511 0.901632 122 133 150
0.031484 -0.965887 1.026500 102 153 150
0.657766 -0.781053 1.042007 107 148 150
0.553963 -0.756392 1.111258 108 147 150
0.216985 -0.664290 0.950065 110 145 150
-0.292533 -1.337746 1.232464 93 162 150
-0.256888 -0.260163 0.964239 120 135 150
-0.167761 -1.123497 0.980489 98 157 150
0.009631 -0.318921 0.934275 119 136 150
0.389475 -0.883074 0.988885 104 151 150
-0.025658 -0.896792 0.982541 104 151 150
0.424659 -1.185703 0.977630 97 158 150
0.097257 -0.735936 1.341339 108 147 150
-0.042260 -0.966411 0.995242 102 153 150
0.272360 -0.374485 1.003067 117 138 150
0.539525 -0.472203 1.001232 115 140 150
-0.025766 -0.666421 0.996998 110 145 150
0.028069 -0.444230 0.946420 116 139 150
0.150425 -0.434201 1.040669 116 139 150
-0.172770 0.120882 0.933222 130 125 150
-0.320928 0.585245 0.741034 142 113 150
0.464060 -0.537568 1.037934 113 142 150
0.896733 -0.822716 1.164573 106 149 150
0.645531 -1.064997 1.094990 100 155 150
0.544959 -0.939087 0.936949 103 152 150
0.311750 -0.129290 0.991714 124 131 150
-0.437929 -0.881922 0.899809 105 150 150
-0.135581 -0.460950 0.982545 115 140 150
-0.236287 -1.065163 0.953287 100 155 150
-0.429921 -1.099975 0.881501 99 156 150
-0.335118 -0.923864 0.948797 103 152 150
-0.646821 -1.059202 0.858916 100 155 150
-0.635755 -1.188227 0.859609 97 158 150
0.357179 -0.180900 1.009236 122 133 150
-0.531785 0.555995 0.795966 141 114 150
0.353996 -0.298120 1.014620 119 136 150
-0.702302 -1.007823 0.836505 101 154 150
0.250213 -0.688684 0.977986 109 146 150
0.258074 -0.589361 1.021293 112 143 150
0.076494 -0.392588 0.969513 117 138 150
0.145627 -1.088706 0.984915 99 156 150
0.172344 -0.164626 1.012951 123 132 150
-0.077488 -0.232805 0.929503 121 134 150
-0.124191 -0.801072 0.990892 107 148 150
0.334277 -0.958503 0.967787 103 152 150
-0.276640 -0.630749 0.910722 111 144 150
-0.429634 -0.915339 0.927423 104 151 150
-0.425897 -0.910820 0.910551 104 151 150
-0.777596 -0.805232 0.792779 106 149 150
0.214303 -0.286296 1.018271 120 135 150
-0.222208 -0.934589 0.931361 103 152 150
-0.106324 -0.458539 0.943347 115 140 150
-0.145872 -1.047647 1.006784 100 155 150
-0.295305 -0.344834 0.972370 118 137 150
0.177988 -0.715874 0.955485 109 146 150
-0.137296 -0.882421 0.990203 104 151 150
-0.065121 -0.990679 0.988521 102 153 150
-0.104161 -0.143592 0.924103 123 132 150
-0.421310 -0.125656 0.949494 124 131 150
0.590698 -0.523135 1.019979 114 141 150
-0.323634 -0.258443 0.940542 120 135 150
-0.379394 -0.846428 0.923589 105 150 150
0.821504 -0.349779 1.172268 118 137 150
-0.525669 0.375680 0.874688 137 118 150
0.372907 -0.279592 1.001488 120 135 150
1.280735 -0.865940 1.041739 105 150 150
1.279237 -0.735353 1.035550 108 147 150
0.130525 -0.324318 0.961069 119 136 150
-0.832709 -0.490832 0.769692 114 141 150
0.343069 0.368019 0.980764 136 119 150
1.162015 0.472510 1.055271 139 116 150
0.878241 0.427644 0.996943 138 117 150
-0.044941 -0.652911 1.067656 110 145 150
0.072125 -0.766816 0.933702 107 148 150
0.337968 -0.905932 0.984496 104 151 150
-0.799559 -1.145805 0.857125 98 157 150
0.052462 -1.166274 1.010754 97 158 150
-0.525625 -0.864265 0.884170 105 150 150
0.074403 -0.981207 0.997034 102 153 150
0.666086 -0.106131 1.164856 124 131 150
0.077255 -0.352008 0.941070 118 137 150
-0.542610 -0.718780 0.834736 109 146 150
0.603175 -0.538921 1.018802 113 142 150
-0.177561 -0.348392 0.958548 118 137 150
-0.157589 -1.178939 0.963043 97 158 150
-0.368902 -0.143231 0.992099 123 132 150
0.705203 -1.160191 1.085387 97 158 150
0.113795 -0.998270 0.987654 102 153 150
0.225289 -0.597733 0.972808 112 143 150
-0.521837 -0.018873 0.945229 127 128 150
0.417914 -0.368382 1.014681 118 137 150
0.224837 -0.784732 0.972031 107 148 150
-0.109037 -0.902140 0.996260 104 151 150
0.061086 -0.835503 0.990937 106 149 150
0.070101 -0.982830 1.003972 102 153 150
-0.620806 -0.323085 0.806860 119 136 150
0.051911 -0.887113 0.965637 104 151 150
-0.414959 -0.232461 0.885543 121 134 150
-0.073587 -0.120070 0.920786 124 131 150
-0.418727 -0.670958 0.871729 110 145 150
0.597291 -0.952799 1.095221 103 152 150
0.863404 -0.541735 1.212879 113 142 150
0.638944 -1.059878 1.091785 100 155 150
-0.342131 0.683280 0.750717 144 111 150
-0.264205 0.702186 0.759977 145 110 150
-0.464296 0.606237 0.789164 142 113 150
-0.696092 -0.769982 0.850482 107 148 150
-0.351220 -0.724066 0.969696 109 146 150
-0.012203 -0.692476 1.381439 109 146 150
-0.096387 -1.111850 0.989970 99 156 150
0.271522 -0.876054 0.974810 105 150 150
-0.527695 -0.919924 0.875321 104 151 150
-0.455431 -0.759422 0.932081 108 147 150
0.502018 -0.747144 1.047198 108 147 150
1.068558 -1.219832 1.107057 96 159 150
0.975061 -0.770915 1.104363 107 148 150
0.944814 -1.070202 0.981366 100 155 150
-0.219980 -0.416466 0.981231 116 139 150
0.937828 0.278843 1.087728 134 121 150
0.732564 0.790344 1.055462 147 108 150
0.764212 0.602753 1.029698 142 113 150
0.559715 1.195292 1.112241 157 98 150
0.794464 -0.057039 0.902390 126 129 150
-0.018757 0.947778 0.943629 151 104 150
-0.148187 -0.290597 0.923392 120 135 150
0.367991 -0.190406 1.050043 122 133 150
0.116760 0.802752 1.020019 147 108 150
0.262266 0.571808 1.034313 142 113 150
0.931225 0.405480 1.082636 137 118 150
0.670137 0.897295 1.119156 150 105 150
0.255731 0.556630 0.981600 141 114 150
-1.008963 -0.445944 0.745801 116 139 150
0.251176 -0.355788 1.034349 118 137 150
0.010315 -0.717645 1.006674 109 146 150
-0.323992 -0.084019 0.914546 125 130 150
-0.140969 -1.021481 0.994709 101 154 150
-0.331118 -0.190948 0.968699 122 133 150
0.178144 -0.738492 0.965923 108 147 150
0.162218 -0.595775 0.958427 112 143 150
0.033054 -0.426190 0.935913 116 139 150
0.310274 1.136471 1.062346 156 99 150
0.437361 1.069257 1.005036 154 101 150
0.162397 0.290653 0.975729 134 121 150
1.158552 0.503905 1.239200 140 115 150
-0.159170 0.769835 0.569376 147 108 150
-0.221700 0.757182 0.560906 146 109 150
0.927801 0.445287 1.097290 138 117 150
0.477096 1.508352 1.081538 165 90 150
0.127665 0.351393 0.958743 136 119 150
1.232202 0.162347 1.068860 131 124 150
1.219122 0.260879 1.087966 134 121 150
1.421447 0.508823 0.954107 140 115 150
-0.028448 0.839335 0.517191 148 107 150
0.528715 1.342945 1.258834 161 94 150
-0.025419 0.852709 0.534308 149 106 150
0.008255 0.224222 0.929683 133 122 150
0.986237 -0.959125 1.109963 103 152 150
0.516867 -0.298366 1.010427 119 136 150
1.298843 0.009450 1.063184 127 128 150
1.191090 -0.700951 1.017540 109 146 150
1.399450 -0.200734 1.065760 122 133 150
1.481593 -0.739810 1.091594 108 147 150
1.330422 -0.296061 1.089511 119 136 150
0.998671 -0.086148 1.017830 125 130 150
0.951913 -0.867475 1.116623 105 150 150
0.127527 -0.288512 0.965741 120 135 150
1.240009 -0.692187 1.040086 109 146 150
0.278743 -0.437493 1.050193 116 139 150
-0.476728 0.667160 0.565391 144 111 150
-0.494841 0.626603 0.645872 143 112 150
-0.095358 0.486907 0.939406 139 116 150
-0.500768 0.583426 0.704194 142 113 150
0.681593 1.480634 1.269312 165 90 150
0.760002 0.059049 1.070752 129 126 150
-0.344807 0.786299 0.648631 147 108 150
-0.043149 0.336520 1.070511 136 119 150
-0.393800 0.729360 0.589390 146 109 150
0.106456 -0.537056 0.959047 113 142 150
0.044424 -0.326312 0.944877 119 136 150
1.305198 0.577255 1.074732 142 113 150
1.240425 0.628021 1.047082 143 112 150
1.033535 -0.077458 1.003798 125 130 150
0.789379 0.214105 0.988220 132 123 150
1.241028 0.162981 1.066762 131 124 150
1.927305 -0.654583 1.066905 110 145 150
1.636895 -0.682826 1.048767 110 145 150
0.514792 -0.696299 1.054242 109 146 150
1.500690 -0.793852 1.104452 107 148 150
1.473750 -0.607152 1.085230 112 143 150
0.674390 -1.052302 1.068804 100 155 150
-0.121775 -0.065801 0.915923 125 130 150
0.627326 -0.652450 1.009377 110 145 150
0.476485 -0.351830 1.011291 118 137 150
0.816103 -1.275161 1.194140 94 161 150
0.195583 -0.954463 1.011738 103 152 150
-0.210979 -0.918136 0.970355 104 151 150
-0.287948 -0.147478 0.954601 123 132 150
0.209716 -0.902618 1.007590 104 151 150
0.458526 -0.684189 1.061188 110 145 150
-0.575160 -0.960661 0.845189 103 152 150
0.289953 -0.455052 1.032850 115 140 150
0.499288 -0.352194 1.002023 118 137 150
0.403606 -1.059209 0.958708 100 155 150
0.095630 -0.412065 0.942024 116 139 150
0.172157 -0.846906 0.672877 105 150 150
0.049617 -0.859694 0.999645 105 150 150
-0.000351 -0.714470 0.991703 109 146 150
0.378244 -1.057396 0.986565 100 155 150
-0.021342 -0.901140 0.995844 104 151 150
0.101301 1.289672 1.022453 160 95 150
0.101997 1.282203 1.010753 160 95 150
0.605127 0.906480 1.086245 150 105 150
0.100368 1.300776 1.039863 160 95 150
0.308860 0.880778 1.105175 149 106 150
-0.334875 0.666412 0.656037 144 111 150
0.750785 0.728896 1.049309 146 109 150
-0.503413 0.114627 0.953326 130 125 150
1.318316 0.971416 1.386418 152 103 150
1.144460 1.124286 1.187709 156 99 150
-0.666556 0.335549 0.873742 136 119 150
1.003090 0.547080 1.282373 141 114 150
0.144156 1.295784 1.110597 160 95 150
0.579305 1.522600 1.149486 166 89 150
-0.741239 -0.253677 0.869236 121 134 150
-0.137016 -0.729366 0.997406 108 147 150
0.695135 0.044622 1.201253 128 127 150
0.282449 -0.096864 1.005280 125 130 150
-0.530217 -0.889754 0.882094 104 151 150
-0.271464 -0.714579 0.977413 109 146 150
1.002333 -0.766731 1.116448 107 148 150
0.638431 -1.084971 1.070144 99 156 150
0.529758 -0.222523 1.066534 121 134 150
-0.001708 -0.757350 1.037022 108 147 150
0.230565 -1.066740 0.986211 100 155 150
0.037192 -0.736300 0.886334 108 147 150
-0.108346 -1.154448 0.965842 98 157 150
-0.167612 0.772459 0.581462 147 108 150
0.101009 0.393600 0.955626 137 118 150
1.276597 -0.633702 1.035412 111 144 150
-0.091542 0.656841 0.920973 144 111 150
-0.021969 0.857776 0.537721 149 106 150
-0.022351 0.857178 0.534555 149 106 150
-0.225077 0.771583 0.594493 147 108 150
-0.304581 0.722366 0.598435 145 110 150
-0.494714 0.589033 0.714763 142 113 150
-0.938936 -0.207323 0.744333 122 133 150
-0.424033 -0.997858 0.897846 102 153 150
0.109358 -0.997774 0.998185 102 153 150
0.858445 0.005535 1.092464 127 128 150
0.519345 0.845985 1.097561 149 106 150
0.812808 1.633714 1.412381 169 86 150
1.378064 0.378954 1.437074 137 118 150
-0.312350 0.782178 0.501802 147 108 150
0.353116 0.795680 1.133296 147 108 150
1.401124 0.346432 1.356623 136 119 150
0.796319 1.058750 1.153745 154 101 150
1.181088 1.156786 1.106581 156 99 150
-0.118341 0.912378 1.017611 150 105 150
0.413344 1.063028 1.110567 154 101 150
0.762736 0.858036 1.117360 149 106 150
-0.312175 0.708497 0.599993 145 110 150
-0.532564 0.636974 0.521988 143 112 150
-0.165815 0.136341 0.971181 130 125 150
-0.777827 0.135453 0.779528 130 125 150
-0.468989 0.648576 0.602873 144 111 150
0.238226 0.130695 0.999318 130 125 150
0.058745 0.913648 0.965037 150 105 150
-0.541043 0.644584 0.553983 143 112 150
-0.570251 0.532440 0.755677 141 114 150
-0.484580 0.665114 0.580251 144 111 150
-0.169318 0.616109 0.896148 143 112 150
0.258090 0.556974 1.012326 141 114 150
0.346105 0.676147 1.087431 144 111 150
-0.871500 -0.373774 0.762108 117 138 150
-0.918703 -0.189564 0.754130 122 133 150
-1.018611 -0.432184 0.735349 116 139 150
-1.071938 -0.372857 0.721925 117 138 150
0.174570 -0.707718 0.943580 109 146 150
-0.946035 -0.431507 0.746857 116 139 150
1.291135 0.516739 1.072787 140 115 150
1.045023 0.428782 1.062263 138 117 150
1.070818 0.041186 1.013882 128 127 150
1.966754 -0.117962 0.977191 124 131 150
1.832430 -0.159351 1.002941 123 132 150
0.180977 -0.917977 0.976896 104 151 150
0.311793 -0.779911 0.970413 107 148 150
0.002765 -0.681740 0.985807 110 145 150
1.020029 0.327816 1.141802 135 120 150
0.322999 0.353234 1.001703 136 119 150
-0.353491 0.351635 0.905030 136 119 150
-0.509868 0.542284 0.760048 141 114 150
-0.653957 0.665755 0.441027 144 111 150
0.363352 -0.246303 1.006799 121 134 150
0.388164 -0.338542 1.011458 118 137 150
1.416625 -0.042587 1.074329 126 129 150
0.129819 -0.109273 0.960976 124 131 150
1.580186 0.304055 1.068941 135 120 150
1.650100 0.104566 1.155294 130 125 150
1.487604 -0.216024 1.120999 121 134 150
1.006237 -0.227246 1.034433 121 134 150
1.652244 -0.067503 1.069737 125 130 150
0.400092 -0.343954 1.009733 118 137 150
0.420237 0.065375 1.019887 129 126 150
0.055408 -0.443804 0.948891 116 139 150
1.304336 -0.244823 1.080425 121 134 150
0.503403 -0.694510 1.031296 109 146 150
1.509635 0.433756 0.964710 138 117 150
1.186025 0.488357 1.055295 139 116 150
1.158468 0.433964 1.059950 138 117 150
1.562977 0.026285 1.034724 128 127 150
0.335596 0.271326 0.998165 134 121 150
1.392647 -0.357520 1.077861 118 137 150
1.818085 0.364430 1.214330 136 119 150
1.626052 0.208818 0.990810 132 123 150
0.029178 -1.039774 1.001417 100 155 150
-0.639071 -0.950507 0.851575 103 152 150
-0.050667 -0.702019 1.030079 109 146 150
0.144967 -1.004545 0.979813 101 154 150
0.169439 -0.386885 0.970235 117 138 150
0.318738 -0.137399 0.983953 123 132 150
0.336653 -0.174864 1.062950 123 132 150
0.344789 -0.154013 0.983506 123 132 150
0.447026 -0.441328 1.024296 116 139 150
1.046814 -0.055643 1.022400 126 129 150
1.332433 0.428425 1.062010 138 117 150
0.474806 -0.631365 1.045776 111 144 150
1.359367 0.156430 1.086582 131 124 150
0.271070 -0.070596 1.006735 125 130 150
0.013023 -0.224831 0.941880 121 134 150
0.248602 0.079337 0.996890 129 126 150
1.276108 0.066167 1.091198 129 126 150
1.324469 -0.021610 1.058248 126 129 150
1.334189 0.095371 1.065521 129 126 150
0.254736 0.031474 1.001140 128 127 150
1.501897 0.140294 1.049603 131 124 150
0.605123 -0.515382 1.024358 114 141 150
-1.142959 -0.679254 0.724456 110 145 150
0.081699 0.422793 0.990531 138 117 150
-0.324961 0.668776 0.655228 144 111 150
-0.229246 0.748382 0.603566 146 109 150
-0.112283 0.604154 0.875148 142 113 150
-0.460070 0.658449 0.554025 144 111 150
0.017349 0.535828 0.941004 141 114 150
1.075693 -0.212631 1.030002 122 133 150
0.507937 0.106532 1.012470 130 125 150
1.623685 -0.071115 1.043326 125 130 150
0.947566 0.239162 1.007187 133 122 150
1.439364 0.544257 1.021277 141 114 150
1.305051 0.008844 1.071446 127 128 150
1.612398 -0.593975 1.062880 112 143 150
1.428843 0.522422 1.075347 140 115 150
1.517018 -0.009402 1.074593 127 128 150
1.476383 0.073615 1.060663 129 126 150
0.406483 0.048609 1.001439 128 127 150
0.893667 0.228045 0.983809 133 122 150
0.866963 0.417893 0.975320 138 117 150
1.136090 -0.348401 1.020278 118 137 150
1.447804 0.174733 1.076163 131 124 150
0.974122 0.141363 1.006570 131 124 150
1.064106 -0.155798 1.005342 123 132 150
0.141505 0.232610 0.972231 133 122 150
1.240635 0.113629 1.098714 130 125 150
1.441271 -0.137450 1.059968 123 132 150
1.300447 0.436289 1.031304 138 117 150
0.347763 -0.281670 1.004169 120 135 150
0.938482 0.236079 0.996963 133 122 150
0.829885 0.384935 1.093047 137 118 150
0.811803 0.418217 1.063224 138 117 150
-0.551365 0.246073 0.888317 133 122 150
0.671081 1.146529 0.984540 156 99 150
-0.337651 -0.136545 0.950293 124 131 150
0.182518 0.224387 0.981840 133 122 150
-0.536471 0.607597 0.827304 142 113 150
0.731459 0.459381 1.047817 139 116 150
-0.367296 0.586049 0.787400 142 113 150
0.071792 1.023613 0.979289 153 102 150
-0.556498 0.098276 0.902849 130 125 150
-0.352458 0.628537 0.786664 143 112 150
-0.458335 0.652102 0.753969 144 111 150
-0.111909 0.882814 0.925930 150 105 150
-0.493360 0.628252 0.651261 143 112 150
-0.327720 0.096473 0.956303 129 126 150
-0.105672 0.975240 0.952017 152 103 150
-0.605059 0.557935 0.782618 141 114 150
0.313333 -0.067110 1.011323 125 130 150
0.213483 0.632806 0.964386 143 112 150
0.452954 1.075523 1.021707 154 101 150
1.074858 0.172298 1.135441 131 124 150
-0.275529 0.391605 0.913846 137 118 150
-0.250827 0.660831 0.673955 144 111 150
0.993285 -0.023391 1.139377 126 129 150
0.596655 1.103444 1.128424 155 100 150
-0.440451 0.590091 0.766545 142 113 150
0.523382 0.657987 1.162351 144 111 150
0.071309 0.453475 0.927733 139 116 150
0.768165 0.356718 1.115368 136 119 150
0.719792 0.334999 1.032705 136 119 150
-0.011068 -0.292115 0.985742 120 135 150
1.182409 0.054073 1.137193 128 127 150
0.423345 -0.266387 1.101582 120 135 150
0.104948 -0.080626 1.005728 125 130 150
0.110540 -0.162273 0.993808 123 132 150
0.761207 1.205864 1.109166 158 97 150
0.527318 0.406471 1.089100 137 118 150
0.016358 0.099951 0.994095 130 125 150
0.197810 0.146251 0.306903 131 124 150
0.740116 -0.179426 1.178437 122 133 150
-0.233912 0.368513 0.826543 136 119 150
0.681642 0.531797 1.065796 141 114 150
-0.608876 0.303964 0.893959 135 120 150
0.169978 0.229161 0.105287 133 122 150
-0.382252 0.344165 0.650453 136 119 150
0.040980 0.124257 0.885548 130 125 150
0.692628 0.165887 0.932906 131 124 150
0.494342 -0.133669 1.102540 124 131 150
-0.390618 0.084705 0.793924 129 126 150
-0.269751 -0.439543 0.965293 116 139 150
0.816449 0.414162 1.070936 138 117 150
-0.720678 0.320549 0.834849 135 120 150
-0.083639 0.182823 0.960860 132 123 150
-0.067533 0.807373 0.951135 148 107 150
0.052244 0.481254 0.951560 139 116 150
0.242250 0.302651 0.415634 135 120 150
-0.501300 0.061531 0.894487 129 126 150
0.460114 0.755385 1.094977 146 109 150
-0.767225 0.134258 0.783492 130 125 150
0.449477 0.105994 1.080426 130 125 150
0.665951 0.264540 1.128117 134 121 150
0.906195 0.563390 1.124633 141 114 150
0.457791 0.534712 0.596939 141 114 150
0.311455 -0.050358 1.011795 126 129 150
0.490092 1.178976 1.044705 157 98 150
0.984333 -0.100192 1.115690 124 131 150
-0.107906 0.591410 0.925289 142 113 150
0.824887 -0.131107 1.118432 124 131 150
-0.585683 0.620038 0.675601 143 112 150
-0.345656 0.670428 0.743295 144 111 150
-0.695743 0.164330 0.808090 131 124 150
0.915326 0.099696 1.072475 130 125 150
-0.076991 -0.348467 1.000292 118 137 150
-0.339835 -0.440247 0.888821 116 139 150
0.240615 0.149549 0.989200 131 124 150
-0.394704 -0.188614 0.963330 122 133 150
0.734188 0.951325 1.071033 151 104 150
0.958579 0.565544 1.090957 141 114 150
0.690167 0.665746 1.161842 144 111 150
0.241251 0.651008 0.975561 144 111 150
0.620582 0.927107 1.116645 151 104 150
-0.473870 0.375708 0.903244 137 118 150
-0.614247 0.274347 0.869631 134 121 150
0.874806 0.484641 1.176479 139 116 150
0.547878 0.533523 1.059549 141 114 150
0.387953 0.212714 0.977242 132 123 150
-0.316381 -0.383919 0.954504 117 138 150
-0.446190 -0.150142 0.880927 123 132 150
0.554304 1.165610 1.086160 157 98 150
-0.390340 0.664775 0.792132 144 111 150
0.653384 0.696807 1.066266 145 110 150
0.704676 0.658141 1.035461 144 111 150
0.525938 1.226392 1.095972 158 97 150
-0.472461 0.723932 0.727219 145 110 150
-0.303373 0.650691 0.794112 144 111 150
0.481247 0.423242 0.934655 138 117 150
0.153590 0.211042 0.977975 132 123 150
0.855074 0.226062 1.080690 133 122 150
-0.049845 0.101103 0.980930 130 125 150
0.075456 0.027178 0.947954 128 127 150
0.817348 0.383508 1.081639 137 118 150
-0.100697 0.280580 0.941862 134 121 150
-0.380621 -0.207783 0.919126 122 133 150
-0.461159 -0.182433 0.918011 122 133 150
0.262851 0.581687 0.966165 142 113 150
0.807678 0.272293 1.084663 134 121 150
-0.055621 0.630022 0.919823 143 112 150
-0.253275 0.021234 0.917208 128 127 150
-0.389699 0.679146 0.804391 144 111 150
-0.470520 0.667618 0.596201 144 111 150
-0.246489 0.747019 0.643058 146 109 150
0.586427 0.333341 1.044050 136 119 150
0.438036 0.948141 1.072912 151 104 150
-0.158737 0.805281 0.633812 148 107 150
-0.554790 0.652675 0.580869 144 111 150
-0.096650 0.922346 0.919460 151 104 150
-0.568531 0.537621 0.746474 141 114 150
0.756344 -0.054234 1.222610 126 129 150
0.457290 0.859811 1.086120 149 106 150
0.326181 1.007825 1.006377 153 102 150
0.294383 0.999818 1.078955 152 103 150
0.150574 1.124054 1.016171 156 99 150
0.079694 0.376700 0.956871 137 118 150
-0.488263 -0.112346 0.911112 124 131 150
0.662139 0.282831 1.058946 134 121 150
0.753902 -0.096272 1.138291 125 130 150
0.597172 0.076979 1.163164 129 126 150
-0.522527 0.647126 0.729252 144 111 150
-0.304064 0.662969 0.814867 144 111 150
0.708291 1.065473 1.139628 154 101 150
0.952686 0.313102 1.094267 135 120 150
0.031290 0.934465 0.923917 151 104 150
0.531365 1.041946 1.079328 154 101 150
0.519415 1.182902 1.130763 157 98 150
0.310813 -0.174879 1.011303 123 132 150
-0.142194 0.779361 0.927554 147 108 150
0.457343 0.641756 1.042110 143 112 150
-0.456620 0.649954 0.754846 144 111 150
-0.087251 0.867275 0.845138 149 106 150
-0.294969 0.393027 0.912196 137 118 150
-0.404003 -0.070687 0.935215 125 130 150
-0.291279 -0.405899 0.929657 117 138 150
0.195509 0.913196 1.015139 150 105 150
-0.562846 0.616870 0.786133 143 112 150
-0.583090 0.623045 0.793817 143 112 150
0.684286 0.668649 1.218703 144 111 150
0.711060 1.062216 1.138169 154 101 150
-0.389273 0.465495 0.927815 139 116 150
-0.187333 0.024031 0.954930 128 127 150
-0.242558 0.500586 0.953872 140 115 150
-0.211543 -0.441078 0.988904 116 139 150
-4.188488 -3.236493 5.749134 44 211 150
0.480642 1.132969 1.028367 156 99 150
0.189994 0.808858 0.977770 148 107 150
-0.980217 1.357096 1.742046 162 93 150
-0.183947 0.750067 0.719524 146 109 150
0.898892 0.080786 1.119747 129 126 150
0.904811 0.471415 1.067508 139 116 150
0.671973 0.191557 1.090672 132 123 150
0.329707 0.204095 1.004030 132 123 150
-0.535501 0.077509 0.879717 129 126 150
0.157372 -0.179952 1.028578 122 133 150
0.694939 0.639956 1.040731 143 112 150
-0.512193 0.070550 0.921286 129 126 150
0.648682 1.088913 1.544014 155 100 150
0.235230 1.028649 1.059665 153 102 150
0.356411 0.971352 1.084003 152 103 150
0.258648 0.979387 1.067714 152 103 150
1.893556 -0.030031 2.514826 126 129 150
0.258788 -0.043133 1.016898 126 129 150
-0.710533 0.330092 0.825339 135 120 150
-0.244518 0.419936 0.943536 138 117 150
0.045376 0.023818 0.982207 128 127 150
-0.043034 0.568225 0.927776 141 114 150
1.142705 0.090284 1.152941 129 126 150
0.534242 0.629834 1.035990 143 112 150
0.673749 0.166051 1.103047 131 124 150
0.027944 -0.249862 0.952546 121 134 150
0.194445 0.480831 0.976095 139 116 150
0.031408 -0.308726 0.945048 119 136 150
0.859607 -0.081082 1.039902 125 130 150
0.147516 0.674371 0.954767 144 111 150
-0.542455 0.614704 0.814198 143 112 150
0.686784 0.030885 1.104679 128 127 150
-0.165058 0.543537 0.939591 141 114 150
0.724107 0.480879 1.063805 139 116 150
-0.553655 0.571010 0.677058 142 113 150
0.641522 0.106244 1.137371 130 125 150
0.935600 0.071826 1.075121 129 126 150
0.270257 -0.063325 0.997651 125 130 150
0.725324 0.508571 1.095711 140 115 150
0.304664 0.066393 1.028551 129 126 150
-0.328714 0.501599 1.013440 140 115 150
-0.432385 0.635579 0.763836 143 112 150
-0.448735 0.716793 0.736644 145 110 150
-0.366662 0.759082 0.747900 146 109 150
0.793821 0.186430 1.082389 132 123 150
0.871390 0.338336 1.099047 136 119 150
0.011240 -0.271810 0.970688 120 135 150
-0.369014 -0.301675 0.977393 119 136 150
0.511373 0.721876 1.036686 145 110 150
-0.040274 0.085183 0.958974 129 126 150
-0.434988 0.634109 0.693370 143 112 150
-0.095977 0.683550 0.939265 144 111 150
-0.168203 0.648657 0.918331 144 111 150
-0.369670 -0.361528 0.936227 118 137 150
-0.470220 0.377957 0.903814 137 118 150
0.499379 0.311785 1.102585 135 120 150
-0.773111 0.142469 0.824157 131 124 150
0.089974 -1.126383 0.997916 98 157 150
-0.418161 -0.827785 0.909325 106 149 150
-0.723593 -1.228778 0.869395 96 159 150
0.884352 -0.995138 1.102348 102 153 150
0.208793 -0.493648 0.951743 114 141 150
0.120654 -0.382546 0.949351 117 138 150
-0.083974 -1.086611 1.001060 99 156 150
0.645398 0.849434 1.031400 149 106 150
0.285827 1.159622 1.056784 157 98 150
-0.674668 1.142242 1.298343 156 99 150
0.060513 -0.175279 0.953109 123 132 150
0.455682 -1.196672 1.002561 96 159 150
0.221224 -1.034799 0.990430 101 154 150
0.356405 -0.194891 1.022991 122 133 150
-0.436756 -1.213246 0.894011 96 159 150
0.465557 -0.536987 1.038716 113 142 150
0.618494 -0.968198 1.111859 102 153 150
0.408247 -0.295055 0.916306 119 136 150
0.413030 -0.332293 0.983389 119 136 150
0.325744 -0.147693 1.021271 123 132 150
-0.220571 0.722955 0.818180 145 110 150
-0.199894 0.793322 0.763082 147 108 150
0.332793 1.051334 1.068806 154 101 150
-0.655821 0.547719 0.659788 141 114 150
-0.351113 0.688564 0.757000 145 110 150
-0.450549 0.650577 0.778478 144 111 150
0.037540 0.120733 0.955945 130 125 150
0.798198 0.166603 1.089716 131 124 150
0.664999 0.845823 1.020899 149 106 150
0.748625 -0.085077 1.293559 125 130 150
0.211684 0.171848 0.988937 131 124 150
-0.550949 -0.242994 0.675823 121 134 150
0.348320 0.420027 1.031962 138 117 150
0.463488 0.643079 1.039704 143 112 150
0.026767 0.478698 0.947534 139 116 150
0.514853 -0.722449 1.093849 109 146 150
-0.707896 0.591533 0.658722 142 113 150
-0.337716 -0.340748 0.905639 118 137 150
0.339000 0.854608 0.820481 149 106 150
0.429352 0.958324 1.087890 151 104 150
0.506222 1.266309 1.119439 159 96 150
0.863007 0.397371 1.093236 137 118 150
0.260546 0.709987 1.022511 145 110 150
-2.304061 -1.894773 3.105537 79 176 150
0.283795 0.852158 1.072546 149 106 150
-0.276477 0.051005 0.922003 128 127 150
0.274877 -0.035854 1.000143 126 129 150
-0.768918 0.145594 0.821795 131 124 150
0.565156 0.394558 1.098843 137 118 150
0.559450 0.938999 1.088177 151 104 150
0.648989 0.131233 1.042898 130 125 150
0.529779 0.514185 1.085763 140 115 150
0.718970 0.559628 1.020647 141 114 150
0.556524 0.942850 1.626615 151 104 150
0.922911 0.362022 1.086897 136 119 150
-0.844195 0.298811 0.816931 135 120 150
0.622391 1.054037 1.034704 154 101 150
-0.509536 0.587846 0.703213 142 113 150
-0.237645 0.758653 0.640101 146 109 150
0.528358 0.684490 1.098052 144 111 150
0.521672 0.244658 1.112306 133 122 150
-0.310259 -0.345574 0.928723 118 137 150
-0.160582 -0.590570 0.961501 112 143 150
-0.468218 -0.003766 1.066576 127 128 150
-0.011947 -0.179307 0.927651 122 133 150
0.080814 -0.870594 0.919001 105 150 150
-0.508663 -1.059129 0.888505 100 155 150
-0.079169 -1.013324 0.992558 101 154 150
0.856535 -0.225977 1.313994 121 134 150
-0.347748 -0.649933 0.877400 110 145 150
0.736301 -0.927121 1.016973 103 152 150
-0.311586 -0.440828 0.982284 116 139 150
0.641815 -0.395231 1.033553 117 138 150
0.670858 -0.611265 1.063558 111 144 150
0.299407 -0.106375 0.996136 124 131 150
0.468357 -1.169901 0.987503 97 158 150
0.077285 -0.390336 0.961888 117 138 150
0.561652 -0.584338 1.015187 112 143 150
0.203616 -0.470935 0.966889 115 140 150
0.741365 -0.815109 1.045310 106 149 150
-0.405179 -0.219404 0.823714 121 134 150
0.059130 -0.097940 0.973463 125 130 150
-0.123675 -0.217648 0.917376 121 134 150
0.263185 -1.097699 0.985311 99 156 150
-0.410012 -0.292030 0.969683 120 135 150
-0.624583 -0.331009 0.801323 119 136 150
-0.105654 -0.567263 0.979087 113 142 150
7.917234 -5.062144 10.936776 0 255 150
0.687450 -0.552097 1.060536 113 142 150
0.712603 -0.470725 1.113117 115 140 150
-0.434383 -0.676447 0.861891 110 145 150
0.735745 -1.264441 1.118312 95 160 150
-0.496158 -0.995931 0.871430 102 153 150
0.297461 -0.687864 1.005481 109 146 150
-0.538858 -0.721557 0.797944 109 146 150
0.144882 -1.058581 1.023032 100 155 150
0.132419 -1.037694 1.013306 101 154 150
-0.062089 0.064835 0.945963 129 126 150
0.700567 -0.818678 1.029577 106 149 150
0.069581 -0.803835 0.984316 107 148 150
-0.224727 -0.183622 0.979949 122 133 150
0.672800 -1.117827 1.118814 98 157 150
0.582011 -0.593561 1.028074 112 143 150
0.314024 -0.762791 0.981815 108 147 150
0.586628 -0.742068 0.996811 108 147 150
-0.168938 -0.265031 0.960577 120 135 150
0.567017 -0.414846 1.014798 116 139 150
0.316192 -1.101367 0.978732 99 156 150
0.356858 -1.011247 0.985093 101 154 150
-0.550862 0.905570 1.201834 150 105 150
-0.293254 0.328562 0.930514 135 120 150
0.295560 -1.024602 0.968024 101 154 150
-0.193631 -0.330506 0.820457 119 136 150
0.651250 0.702793 1.002716 145 110 150
0.476015 1.128336 1.085716 156 99 150
0.721545 -0.849435 1.057723 105 150 150
-0.083462 -0.701168 0.993694 109 146 150
-0.041560 -0.627654 0.974253 111 144 150
0.166654 -0.391003 0.944521 117 138 150
0.328004 -0.099969 1.050986 124 131 150
0.332907 -0.785565 0.980954 107 148 150
0.299140 -0.096810 0.999061 125 130 150
0.243526 -0.290655 1.031746 120 135 150
-0.272634 -1.013949 0.977793 101 154 150
0.777422 0.525984 1.005669 140 115 150
0.166356 0.846588 0.991848 149 106 150
-0.336310 0.661026 0.714260 144 111 150
-0.454779 0.702590 0.764631 145 110 150
0.111051 0.542913 0.978125 141 114 150
-0.276932 0.675021 0.697578 144 111 150
0.485201 1.219283 1.060259 158 97 150
-0.161014 -0.413170 0.951282 116 139 150
-0.450624 -0.606181 0.858204 112 143 150
-0.614940 -1.015864 0.857704 101 154 150
0.571725 -0.451324 1.021622 115 140 150
0.205656 -1.224058 1.008870 96 159 150
-0.332342 -0.569880 0.863346 112 143 150
0.655459 0.476332 1.438940 139 116 150
0.520849 -0.480771 1.029515 115 140 150
-0.138428 -1.028982 0.949747 101 154 150
-0.083840 -0.923043 0.975286 103 152 150
-0.425980 -1.167931 0.877227 97 158 150
-0.276337 -0.767528 0.975833 107 148 150
-0.610841 -1.200518 0.871501 96 159 150
-0.790341 -1.117549 0.885754 99 156 150
0.298471 -1.135158 1.015920 98 157 150
-0.139994 -1.088985 0.964047 99 156 150
0.141901 -0.819280 1.026460 106 149 150
0.008542 -0.598631 0.998386 112 143 150
0.364888 -0.729183 1.038764 108 147 150
-0.156135 -1.240749 1.035825 95 160 150
-0.082891 -1.057292 0.943658 100 155 150
-0.753731 -0.797044 0.796358 107 148 150
-0.257029 -0.629065 0.971557 111 144 150
-0.418293 -0.872332 0.857706 105 150 150
0.642075 -0.893517 1.035771 104 151 150
-0.131883 -1.055179 0.978287 100 155 150
0.549446 -0.053682 1.034140 126 129 150
-0.207500 -0.195943 0.944857 122 133 150
-0.606956 -0.546973 0.773819 113 142 150
0.483239 -1.156031 1.003783 98 157 150
-0.325015 -0.798366 0.957297 107 148 150
-0.704409 -1.015617 0.775765 101 154 150
-0.326924 -0.480563 0.990543 115 140 150
-1.042206 -1.163491 1.098979 97 158 150
-0.017881 -1.185563 1.020069 97 158 150
0.710876 -0.577195 1.064906 112 143 150
0.627217 -0.826400 1.022060 106 149 150
0.698225 -1.200671 1.092882 96 159 150
0.691169 -0.020514 1.176433 126 129 150
0.305077 -1.177497 0.999226 97 158 150
0.090868 -0.712325 0.968430 109 146 150
0.337606 -0.033868 1.065492 126 129 150
-0.492958 -0.775386 0.885833 107 148 150
0.047041 -0.619785 0.957161 111 144 150
0.347189 -1.166187 1.013540 97 158 150
0.167350 -0.041142 0.974998 126 129 150
0.034110 -0.058774 1.014312 126 129 150
0.738433 -0.582834 1.087861 112 143 150
0.289315 -0.683943 0.993608 110 145 150
1.036996 -0.019590 1.156857 127 128 150
0.484829 -0.653361 1.051358 110 145 150
0.034634 -0.971733 0.987883 102 153 150
-0.075217 -1.135467 1.021380 98 157 150
0.526804 -0.320712 0.973804 119 136 150
-0.123218 -0.232456 0.871757 121 134 150
-0.091849 -1.138963 0.956794 98 157 150
-0.082264 -1.040652 0.974147 100 155 150
-0.242664 -0.817032 1.034701 106 149 150
0.355844 -0.205395 0.996390 122 133 150
-0.309358 -0.326313 0.977928 119 136 150
-0.440761 -0.295980 0.979337 119 136 150
0.041189 -0.623859 0.963716 111 144 150
-0.765119 -1.133839 0.872895 98 157 150
-0.300249 -0.750263 1.127616 108 147 150
0.672991 -0.635854 1.038433 111 144 150
0.060839 -0.085081 0.994636 125 130 150
-0.631601 -0.891999 0.767767 104 151 150
0.127517 -1.224748 1.015277 96 159 150
0.275564 -0.342651 1.037923 118 137 150
0.049776 -1.017855 0.980083 101 154 150
-0.448149 -1.089002 0.873673 99 156 150
1.041824 -0.186592 1.545409 122 133 150
