ply
format ascii 1.0
element vertex 1176
property float x
property float y
property float z
property uchar red
property uchar green
property uchar blue
end_header
-1.901509 1.271386 -2.783750 159 96 150
-1.659658 1.254376 -2.645161 159 96 150
-1.061970 0.482365 -1.899315 139 116 150
-1.094597 0.555884 -1.940601 141 114 150
-2.406709 -0.263239 -4.192014 120 135 150
-1.678334 -0.969389 -4.056908 102 153 150
-1.839673 0.716334 -3.926133 145 110 150
-1.736622 -0.513606 -4.122297 114 141 150
-1.790597 -0.833158 -3.953842 106 149 150
-4.518028 1.037208 -4.231847 153 102 150
-2.342894 0.767158 -3.542567 147 108 150
-3.696247 1.164190 -3.945569 157 98 150
-3.907537 1.355628 -4.071670 162 93 150
-0.163991 0.084100 -0.364922 129 126 150
-0.183514 0.062749 -0.415546 129 126 150
-0.441775 0.720192 0.146020 145 110 150
-1.249958 0.663739 -1.972437 144 111 150
-1.139597 0.433883 -1.756472 138 117 150
-1.153214 0.658108 -1.970567 144 111 150
-1.878398 1.340132 -2.796242 161 94 150
-0.985934 0.646553 -1.838653 143 112 150
-1.129931 0.739137 -1.977415 146 109 150
-0.971100 0.636118 -1.839110 143 112 150
-0.866334 0.561302 -1.864925 141 114 150
-1.126346 0.428918 -1.759537 138 117 150
-1.065519 0.366508 -1.654210 136 119 150
-0.969684 0.528540 -1.881473 140 115 150
-1.100483 0.142506 -0.871615 131 124 150
-0.963084 0.445043 -1.715952 138 117 150
-1.127346 0.014785 -1.455815 127 128 150
-4.327516 1.127691 -4.062677 156 99 150
-2.458636 0.286618 -3.802701 134 121 150
-3.143547 0.774824 -4.008746 147 108 150
-2.425405 0.472346 -3.837397 139 116 150
-2.468792 0.613059 -4.347250 143 112 150
-4.366469 1.045850 -4.346596 154 101 150
-1.813127 -1.110493 -3.999733 99 156 150
-2.087999 -0.178116 -3.920859 122 133 150
-1.868296 -1.263675 -4.083897 95 160 150
-1.634593 -1.314927 -3.888586 93 162 150
-2.693675 -0.678482 -4.754792 110 145 150
-2.757094 0.986192 -3.760939 152 103 150
-3.062262 1.279781 -3.665463 160 95 150
-1.889189 -1.034627 -4.063292 101 154 150
-2.099337 -0.758119 -5.181324 108 147 150
-1.984656 0.300088 -4.602084 135 120 150
-2.564701 0.170639 -3.908047 131 124 150
-2.208046 -0.023377 -5.137449 126 129 150
-1.918464 -0.095975 -4.022711 125 130 150
-2.175775 1.428135 -3.623810 163 92 150
-1.966707 1.352276 -3.169225 161 94 150
-1.670742 1.371061 -3.469959 162 93 150
-1.353246 0.187096 -5.061280 132 123 150
-1.791317 -0.795296 -3.961916 107 148 150
-2.086112 0.307071 -3.699921 135 120 150
-0.894391 0.090600 -5.163624 129 126 150
-0.502616 1.065608 -5.154516 154 101 150
0.728049 1.551558 -6.353577 167 88 150
1.505738 0.067944 -4.178995 129 126 150
-0.313511 0.051829 -0.561024 128 127 150
-0.477684 -0.280228 -0.023199 120 135 150
-0.994411 0.402610 -1.587626 137 118 150
-1.672821 1.378739 -3.477816 162 93 150
-1.786004 1.518305 -3.847491 166 89 150
-1.251530 1.438737 -3.453826 164 91 150
-1.334910 1.553939 -3.875394 167 88 150
-1.948146 -0.078799 -4.612686 125 130 150
-2.186926 0.092321 -5.070415 129 126 150
-1.983360 0.846144 -4.533325 149 106 150
-2.586313 0.167717 -3.933344 131 124 150
-2.068274 0.475709 -4.788548 139 116 150
-1.244411 0.417502 -5.690727 138 117 150
-1.635185 0.412629 -4.940166 138 117 150
-1.508936 1.551549 -4.114128 167 88 150
-1.230025 0.678810 -2.008946 144 111 150
-2.505611 0.908403 -3.827771 150 105 150
-3.352415 1.149225 -3.831046 156 99 150
-0.114896 0.128663 -0.425134 130 125 150
-0.235916 0.482386 0.261376 139 116 150
-0.402488 0.047459 0.426159 128 127 150
0.327223 0.580634 0.989025 142 113 150
-0.194400 0.006871 0.859187 127 128 150
-0.260365 0.075478 0.073414 129 126 150
-0.191546 0.102589 -0.775011 130 125 150
0.115429 0.503590 0.261828 140 115 150
-0.104630 0.128538 -0.676295 130 125 150
-0.282023 -0.219395 0.626612 121 134 150
-0.192643 0.078603 0.001880 129 126 150
-1.037923 0.454255 -1.828076 139 116 150
-1.077740 0.476017 -1.775424 139 116 150
-1.034971 0.370195 -1.612448 136 119 150
-0.883408 0.412938 -1.664031 138 117 150
-2.008953 0.879183 -2.875211 149 106 150
-1.974184 0.469056 -2.904222 139 116 150
-1.838197 -0.038888 -2.865911 126 129 150
-0.949371 0.727120 -1.880414 146 109 150
-0.317374 0.064333 -0.728604 129 126 150
-0.654087 -0.156464 -0.862347 123 132 150
-0.594469 -0.173185 -0.571154 123 132 150
-0.618207 0.085401 -0.584113 129 126 150
-1.370883 1.453610 -3.426837 164 91 150
-0.957522 0.670041 -2.093092 144 111 150
-0.975250 0.604460 -1.584432 142 113 150
-1.100453 0.486623 -1.780017 139 116 150
-0.903484 0.639961 -2.035369 143 112 150
-2.043571 1.396357 -3.593654 163 92 150
-1.853321 -0.713767 -4.006737 109 146 150
-4.176267 1.337380 -4.136580 161 94 150
-4.581049 1.203755 -4.045583 158 97 150
-2.352761 1.382464 -2.999607 162 93 150
-2.228643 1.313926 -2.950253 161 94 150
-2.063273 1.216828 -2.880240 158 97 150
-1.028650 0.603896 -1.825949 142 113 150
-5.065086 0.093949 -5.850318 129 126 150
-1.220953 0.694362 -2.037409 145 110 150
0.323905 0.202394 0.785296 132 123 150
0.505839 0.506807 1.494208 140 115 150
-0.390374 -0.033049 0.711717 126 129 150
0.488116 0.480182 1.358184 139 116 150
-0.159261 -0.107614 0.860281 124 131 150
-0.499374 -0.259744 0.295279 120 135 150
-2.078398 1.413005 -3.613132 163 92 150
-1.514972 1.328052 -3.684326 161 94 150
-1.088823 0.706500 -2.028773 145 110 150
-0.828135 0.401264 -1.677464 137 118 150
-0.745859 0.032717 -0.481201 128 127 150
-0.640171 0.021312 -0.494124 128 127 150
-0.675495 0.024364 -0.466566 128 127 150
-0.692919 0.028322 -0.604461 128 127 150
-0.649696 -0.202826 -0.683491 122 133 150
-0.632473 -0.233085 -0.580617 121 134 150
-1.101320 0.480821 -1.984468 139 116 150
-1.034047 0.733542 -2.038434 146 109 150
-1.023950 0.435704 -1.725742 138 117 150
-2.393661 0.703210 -4.112473 145 110 150
-1.528551 0.235030 -5.823268 133 122 150
-1.652688 -0.303132 -2.783008 119 136 150
-1.517812 0.149087 -5.696733 131 124 150
-2.511604 0.773459 -3.865247 147 108 150
0.646789 -0.209081 -6.786520 122 133 150
-0.091772 0.083367 -0.039301 129 126 150
0.153083 0.092030 -0.017024 129 126 150
-2.339820 1.403692 -3.207010 163 92 150
-4.280247 1.294778 -3.980317 160 95 150
-4.747241 1.293622 -3.876034 160 95 150
-4.500358 1.215624 -3.785667 158 97 150
-1.043296 0.373862 -1.612896 137 118 150
-1.551986 -0.277567 -3.344650 120 135 150
-2.946301 0.723836 -4.639962 145 110 150
-1.798586 0.655030 -3.973674 144 111 150
1.463239 0.094428 -4.099166 129 126 150
0.924129 0.206118 1.716403 132 123 150
0.938487 0.219363 1.792885 133 122 150
0.547108 0.008845 1.565438 127 128 150
0.080639 0.139514 -0.086923 131 124 150
0.398032 0.659867 1.129428 144 111 150
-0.275101 -0.287291 0.661887 120 135 150
0.063301 0.151170 -0.082710 131 124 150
-0.326145 -0.255020 0.556335 120 135 150
-0.378698 -0.306727 0.896610 119 136 150
-0.377663 -0.124565 0.368652 124 131 150
0.066214 0.069903 0.012835 129 126 150
0.058588 0.075520 0.029916 129 126 150
0.155780 0.091321 -0.017025 129 126 150
0.501862 0.554656 1.496080 141 114 150
0.318042 0.200241 0.792887 132 123 150
0.207242 0.258995 0.754671 134 121 150
-0.379375 -0.116038 0.270708 124 131 150
-0.565721 -0.062330 0.391479 125 130 150
-0.431823 -0.116071 0.340718 124 131 150
-0.066070 0.061021 0.834097 129 126 150
-0.530867 -0.147779 0.346694 123 132 150
-0.194957 0.073094 -0.018755 129 126 150
-0.528123 -0.059813 0.336862 125 130 150
1.857429 0.900546 1.890129 150 105 150
-0.212533 -0.358345 1.214183 118 137 150
0.395381 0.631546 1.076627 143 112 150
-0.033551 0.112573 -0.309887 130 125 150
-0.193783 0.071729 -0.025587 129 126 150
-0.165708 0.488208 1.099317 139 116 150
0.076378 0.450729 0.532657 138 117 150
-0.093597 0.087731 0.063231 129 126 150
-0.315709 -0.143274 0.991259 123 132 150
0.413289 0.246357 1.270548 133 122 150
0.055620 0.030639 -0.099664 128 127 150
-0.361131 -0.178052 0.310644 122 133 150
-0.404824 -0.066469 0.315412 125 130 150
-0.425776 -0.065648 0.345341 125 130 150
0.433260 0.092789 1.129816 129 126 150
0.198580 0.056039 1.650583 128 127 150
0.748434 0.000287 1.564081 127 128 150
-0.064145 0.072388 0.001081 129 126 150
0.023647 0.126754 -0.067250 130 125 150
-0.236684 0.067910 -0.014407 129 126 150
-0.193946 0.072836 -0.020587 129 126 150
0.096664 0.115260 -0.170950 130 125 150
-0.187396 0.075658 -0.061188 129 126 150
-0.328296 -0.142359 0.573413 123 132 150
-0.158249 0.097305 -0.159663 129 126 150
0.354646 0.433976 0.276233 138 117 150
0.030184 -0.076637 0.796310 125 130 150
0.741503 0.578989 1.536421 142 113 150
0.748900 0.599504 1.586062 142 113 150
0.403031 0.090376 1.164319 129 126 150
-0.085928 -0.131861 0.859830 124 131 150
0.385968 0.009713 1.340430 127 128 150
0.430099 -0.404419 1.369098 117 138 150
-0.072614 -0.044535 0.749162 126 129 150
0.058545 0.019958 0.992998 128 127 150
0.074750 0.098605 -0.041060 130 125 150
-0.257785 0.077845 -0.018898 129 126 150
-0.106681 0.094185 -0.341352 129 126 150
0.072799 0.118539 -0.306021 130 125 150
-0.172714 0.102849 -0.137347 130 125 150
0.072324 0.119508 -0.303111 130 125 150
-0.420757 -0.197078 0.423444 122 133 150
-0.356424 -0.295549 0.865537 119 136 150
-0.387410 -0.076403 0.386864 125 130 150
0.304708 0.578735 1.010415 142 113 150
0.026793 -0.002714 1.031747 127 128 150
-0.383432 -0.055134 0.607260 126 129 150
-0.126201 0.067671 -0.302899 129 126 150
0.003907 0.112351 -0.021544 130 125 150
-0.176232 0.064678 -0.055707 129 126 150
0.199011 -0.028314 -0.600659 126 129 150
-0.345996 -0.044091 0.628731 126 129 150
-0.405051 -0.201074 -0.127235 122 133 150
0.747415 0.439216 1.522326 138 117 150
-0.395506 -0.214909 0.603900 122 133 150
0.674109 0.312361 1.445196 135 120 150
0.200859 0.245280 0.777135 133 122 150
-0.178178 0.203868 -0.732984 132 123 150
-1.732257 1.192945 -2.684302 157 98 150
-1.600822 0.495842 -2.698653 140 115 150
-1.581437 0.488116 -2.685839 139 116 150
-2.811172 1.421338 -3.753673 163 92 150
-2.463201 1.370201 -3.188246 162 93 150
-1.155168 0.477649 -1.834900 139 116 150
-0.913992 0.588136 -1.862388 142 113 150
-2.239634 1.142579 -3.623812 156 99 150
-1.382718 0.358245 -2.596626 136 119 150
-0.629549 -0.169234 -0.728595 123 132 150
-0.696378 0.688408 -0.162515 145 110 150
-0.898847 0.673979 -2.102561 144 111 150
-1.964501 1.334113 -2.939097 161 94 150
-2.650007 1.225469 -3.618413 158 97 150
-1.564584 0.420143 -2.683497 138 117 150
-0.849035 0.727058 -2.000871 146 109 150
-0.526918 0.566209 -0.917288 141 114 150
-1.969126 1.389504 -3.148856 162 93 150
-1.659007 0.004703 -2.785056 127 128 150
-1.588044 1.023679 -2.626334 153 102 150
-0.729284 -0.226251 -0.787137 121 134 150
-0.678444 -0.057159 -0.838039 126 129 150
-0.659383 -0.043424 -0.861501 126 129 150
-0.013601 0.082597 -0.341644 129 126 150
0.002181 0.070353 -0.388677 129 126 150
-0.690456 -0.093378 -0.793504 125 130 150
-0.901797 0.163802 -0.602309 131 124 150
-0.688128 0.126263 -0.821489 130 125 150
-0.191493 0.076890 -0.914530 129 126 150
-0.714474 -0.291386 -0.793119 120 135 150
-0.319843 0.064559 -0.758309 129 126 150
0.903887 0.923038 1.807900 151 104 150
0.411366 0.707659 1.404835 145 110 150
-0.163217 -0.409824 0.976934 117 138 150
-0.181513 -0.206862 0.968841 122 133 150
-1.037945 0.431432 -1.591960 138 117 150
-0.613071 -0.297793 0.045508 119 136 150
-0.238310 0.081126 -0.327120 129 126 150
-2.307058 0.888783 -3.571889 150 105 150
0.362501 -0.329033 1.261649 119 136 150
0.745160 0.438729 1.515000 138 117 150
-1.930975 1.384739 -4.146766 162 93 150
-3.946452 0.887447 -4.464901 150 105 150
-2.521962 1.335520 -3.136925 161 94 150
-1.033995 0.582537 -1.468302 142 113 150
-1.137860 0.781991 -1.948773 147 108 150
-0.538444 -0.220731 -0.650218 121 134 150
-0.779388 0.616163 -0.323625 143 112 150
-0.665519 -0.223116 -0.812468 121 134 150
-0.987125 0.403714 -1.644609 137 118 150
-1.181857 0.517711 -2.004458 140 115 150
-0.616562 -0.175488 -0.553168 123 132 150
-0.549875 0.092203 -0.755396 129 126 150
-0.634260 0.088436 -0.572117 129 126 150
-1.067499 0.378550 -1.637949 137 118 150
-0.593035 -0.175881 -0.639426 123 132 150
-0.348148 0.071261 -0.824678 129 126 150
-0.178235 0.149854 -1.061862 131 124 150
-0.720128 0.019520 -0.175709 127 128 150
-0.510249 -0.228049 -0.164224 121 134 150
-0.861048 0.526127 -1.768189 140 115 150
-1.656542 1.070500 -2.657811 154 101 150
-3.744530 1.195047 -3.834084 157 98 150
-4.171867 1.307211 -4.166193 160 95 150
-0.864244 0.732462 -2.136674 146 109 150
-2.657462 0.023585 -3.977098 128 127 150
-4.051026 1.267518 -4.116579 159 96 150
-0.849022 0.595597 -1.459745 142 113 150
-0.418459 0.140664 -1.083224 131 124 150
-0.890791 0.710459 -1.861323 145 110 150
-4.790159 1.226941 -4.299286 158 97 150
-4.411352 1.016331 -4.116477 153 102 150
-0.695397 -0.031294 -0.784878 126 129 150
-0.727318 0.129694 -0.815764 130 125 150
-0.703209 -0.086230 -0.760094 125 130 150
-0.678150 -0.033005 -0.784432 126 129 150
-0.213341 0.149104 -1.093847 131 124 150
-0.609814 -0.055302 -0.685032 126 129 150
-0.596453 0.093932 -0.749791 129 126 150
-0.660426 -0.169327 -0.704603 123 132 150
-1.129697 0.611319 -1.851634 143 112 150
-0.634626 -0.160918 -0.676156 123 132 150
-1.011819 0.775748 -1.997564 147 108 150
-0.940044 0.685225 -2.001946 144 111 150
-3.683475 1.261264 -4.027922 159 96 150
-4.549118 0.597974 -4.884053 142 113 150
-0.995446 0.504188 -1.837599 140 115 150
-2.192514 1.126160 -3.593379 156 99 150
-0.929788 0.396083 -1.588931 137 118 150
-1.656588 1.555851 -3.473981 167 88 150
-0.301543 0.494990 0.057355 140 115 150
-0.699243 -0.030386 -0.775576 126 129 150
-0.617563 -0.251797 -0.709289 121 134 150
-1.471850 0.877265 -1.702090 149 106 150
-1.228936 1.478345 -3.519670 165 90 150
-3.032941 1.682532 -3.337300 170 85 150
0.771540 -0.049519 1.905274 126 129 150
0.948183 0.070305 1.670035 129 126 150
-1.839334 1.013899 -3.909552 153 102 150
-1.824529 0.904044 -3.902179 150 105 150
-3.221896 -0.625315 -4.987514 111 144 150
-2.649984 1.423303 -3.634743 163 92 150
-2.590402 1.394040 -3.591614 163 92 150
-2.578388 1.125067 -3.621495 156 99 150
-2.794875 1.382550 -3.257724 162 93 150
-2.791895 1.286468 -3.721116 160 95 150
-0.688530 0.418831 -5.523036 138 117 150
-2.544920 0.242694 -3.712960 133 122 150
-1.704819 -1.015504 -2.874044 101 154 150
-1.038095 -0.161887 0.889002 123 132 150
0.038219 0.029218 -0.073753 128 127 150
0.089408 0.163372 0.540749 131 124 150
-0.183971 0.050497 -0.434839 128 127 150
-0.119354 0.073696 -0.441628 129 126 150
0.100575 0.524180 0.395230 140 115 150
-1.787840 0.942264 -3.952724 151 104 150
-1.796138 0.791581 -3.937179 147 108 150
0.079666 0.112894 -0.313794 130 125 150
0.347658 0.189759 0.810096 132 123 150
0.349405 0.192175 0.820592 132 123 150
-0.893742 0.744730 -2.016217 146 109 150
-1.415918 1.416874 -3.454800 163 92 150
-1.862894 0.601342 -4.051821 142 113 150
-0.470852 0.001164 -0.338312 127 128 150
-0.497567 -0.042363 -0.318945 126 129 150
-1.094832 0.405802 -2.005762 137 118 150
-0.837211 0.713239 -2.063013 145 110 150
-2.436654 0.657509 -4.261208 144 111 150
-1.518339 -0.857456 -3.800699 105 150 150
-1.580317 -0.578844 -2.786263 112 143 150
-1.725813 -0.256569 -3.614378 120 135 150
-2.843868 0.311748 -4.176910 135 120 150
-1.284521 1.518699 -3.764817 166 89 150
-1.767187 -0.342817 -2.840722 118 137 150
-0.592622 -0.210036 -0.237369 122 133 150
-3.071692 1.305114 -3.706250 160 95 150
-1.371357 1.566537 -3.926817 167 88 150
-0.843799 1.303178 -2.654897 160 95 150
-2.006445 1.378709 -4.097079 162 93 150
-1.396698 1.389052 -3.311632 162 93 150
-1.762517 -0.939480 -3.945360 103 152 150
-1.677881 0.639230 -4.181729 143 112 150
-1.675335 -0.868965 -2.847310 105 150 150
-2.766005 1.317596 -4.675102 161 94 150
-2.089062 -0.108030 -3.678435 124 131 150
-2.531250 0.976479 -3.739399 152 103 150
-3.071503 0.902485 -3.660307 150 105 150
-3.056130 1.031018 -3.676949 153 102 150
-2.644064 0.738804 -3.721108 146 109 150
-1.879062 1.360689 -3.971174 162 93 150
-3.224783 0.707167 -4.212417 145 110 150
-2.092838 -1.127305 -3.789330 98 157 150
0.176905 0.249193 0.813878 133 122 150
-1.910077 0.873086 -3.980462 149 106 150
-0.686603 -0.368903 0.286334 118 137 150
-0.296571 0.046874 -0.555531 128 127 150
-0.664688 -0.011012 -0.443726 127 128 150
-0.694760 -0.005180 -0.834292 127 128 150
-0.644219 0.022098 -0.492291 128 127 150
-0.596311 0.582811 -0.929227 142 113 150
-0.715141 0.840682 -0.454779 148 107 150
-0.553264 0.005021 -0.327088 127 128 150
-0.253514 0.050186 -0.499880 128 127 150
-0.797295 0.599412 -0.351030 142 113 150
-0.678160 -0.010109 -0.432453 127 128 150
-0.642909 0.026312 -0.676772 128 127 150
-1.067834 0.488553 -1.904498 139 116 150
-2.347300 1.397145 -3.178123 163 92 150
-2.598884 0.086406 -3.939837 129 126 150
-1.876776 -0.610546 -4.018786 111 144 150
-1.531110 0.482520 -5.529501 139 116 150
-0.865070 1.327071 -2.667373 161 94 150
-2.060122 0.939482 -4.607658 151 104 150
-0.900354 0.589022 -1.871449 142 113 150
-1.127803 0.695130 -1.843395 145 110 150
-0.923598 0.564995 -1.807371 141 114 150
-1.043027 0.407455 -1.679896 137 118 150
-1.995476 -0.054058 -3.705086 126 129 150
-1.782772 -0.489546 -4.124141 115 140 150
-2.648007 0.810458 -3.732715 148 107 150
-2.318764 0.546497 -4.526869 141 114 150
-2.086482 -0.089314 -3.912201 125 130 150
-1.969050 1.360167 -3.086421 162 93 150
-2.612271 0.359186 -3.660473 136 119 150
-1.546788 0.416639 -2.684776 138 117 150
-1.642009 0.761057 -2.675920 146 109 150
-2.647535 0.803442 -3.728384 147 108 150
-2.657301 1.056057 -3.658796 154 101 150
-2.703096 0.539998 -3.939162 141 114 150
-1.755981 1.207865 -2.698898 158 97 150
-1.145717 0.693661 -2.040782 145 110 150
-0.990400 0.644109 -2.093820 143 112 150
-2.602770 0.752317 -4.274358 146 109 150
-5.095791 0.770819 -4.259416 147 108 150
-2.747437 0.405170 -3.226324 137 118 150
-4.795587 0.815885 -4.094916 148 107 150
-0.471422 0.103017 -0.862794 130 125 150
-0.372619 0.076856 -0.835908 129 126 150
-0.958607 0.620246 -1.621917 143 112 150
-0.171446 0.135639 -1.113962 130 125 150
-0.597047 -0.124347 -0.881735 124 131 150
0.074859 0.112679 -0.273868 130 125 150
0.127889 0.071054 -0.312183 129 126 150
-0.054470 0.153115 -0.276753 131 124 150
0.399103 0.664671 1.142394 144 111 150
0.987084 0.760136 1.951155 146 109 150
-0.242102 -0.128951 -0.106874 124 131 150
-3.822034 1.028199 -3.988873 153 102 150
-0.472758 -0.044237 -0.339202 126 129 150
-0.637376 0.018640 -0.203762 127 128 150
-0.481463 0.081543 -0.796617 129 126 150
-0.596515 -0.064861 -0.597453 125 130 150
-0.657170 -0.062624 -0.588805 125 130 150
-2.870864 1.026719 -3.831090 153 102 150
-0.231813 0.091085 -0.902042 129 126 150
-0.164536 0.128686 -1.012446 130 125 150
-0.442122 0.092389 -0.875538 129 126 150
-0.889245 1.336119 -2.739603 161 94 150
-1.012294 1.450716 -2.797703 164 91 150
-1.902196 1.420009 -3.975189 163 92 150
-2.685762 1.103262 -4.298797 155 100 150
-1.364936 1.379121 -3.291061 162 93 150
-2.269169 1.371480 -3.615457 162 93 150
-2.659056 0.586542 -3.915567 142 113 150
-1.762465 0.932418 -3.931240 151 104 150
-1.260798 1.530975 -3.619785 166 89 150
-1.729424 1.481519 -3.922942 165 90 150
-1.148958 0.694658 -2.040781 145 110 150
-1.801302 1.392046 -3.714767 162 93 150
-1.816047 -0.046016 -4.031001 126 129 150
-1.853378 -0.684065 -4.107647 110 145 150
-2.470324 0.241304 -3.756366 133 122 150
-2.984368 0.793087 -3.645432 147 108 150
-1.368474 0.012260 -2.195218 127 128 150
-1.649408 0.585038 -2.700441 142 113 150
-2.583994 1.450345 -3.616296 164 91 150
-1.018978 0.704499 -2.140265 145 110 150
-1.025067 0.366785 -1.614325 136 119 150
-1.191731 0.688815 -2.042181 145 110 150
-0.897140 0.558607 -1.851829 141 114 150
-0.916741 0.574960 -1.900869 142 113 150
-1.171772 0.733188 -1.991943 146 109 150
-1.017344 0.555259 -1.887397 141 114 150
-1.179869 0.733487 -1.994529 146 109 150
-1.043917 0.494681 -1.940512 140 115 150
-0.531785 -0.201044 -0.311252 122 133 150
-0.485663 0.707962 0.005246 145 110 150
-0.404628 0.063754 -0.472353 129 126 150
-1.689728 0.229898 -5.622303 133 122 150
-2.846431 1.194319 -3.857551 157 98 150
-0.583166 0.006491 -0.271252 127 128 150
-0.300844 0.098277 -0.813672 130 125 150
-0.734880 0.638640 -0.283458 143 112 150
-1.010419 0.628477 -1.512225 143 112 150
-0.216913 0.107466 -0.930656 130 125 150
-0.800486 0.277269 -1.718047 134 121 150
-2.248937 1.506714 -4.804560 165 90 150
-1.659564 0.579383 -2.713143 142 113 150
-2.547898 1.414375 -3.379976 163 92 150
-5.151129 2.485911 -5.039781 190 65 150
-2.342739 1.381758 -3.103568 162 93 150
-1.990396 1.345522 -2.982180 161 94 150
-3.040467 0.776625 -3.711960 147 108 150
-1.029422 0.452683 -1.831263 139 116 150
-3.043073 -0.767779 -4.868784 107 148 150
-4.795144 1.038366 -4.098089 153 102 150
-4.705420 1.018634 -4.046180 153 102 150
-0.432873 0.091286 -0.881819 129 126 150
-0.137183 0.139501 -1.021745 131 124 150
-1.222206 -0.704923 -12.688439 109 146 150
-2.036288 1.343809 -3.249493 161 94 150
-2.323960 0.903730 -3.585971 150 105 150
-2.264948 1.341988 -3.709859 161 94 150
-2.346514 1.372388 -3.136438 162 93 150
-1.556717 -0.366565 -2.747181 118 137 150
-3.003672 -0.964293 -4.893322 102 153 150
-2.310437 -0.138381 -4.401734 123 132 150
-2.166298 1.440688 -3.453062 164 91 150
-1.128878 1.857304 -5.908705 174 81 150
-0.967146 0.684425 -2.142014 144 111 150
-1.971488 1.362216 -3.089351 162 93 150
-3.504452 0.510031 -4.365461 140 115 150
-1.369686 1.476348 -2.989999 165 90 150
-2.972572 0.353394 -4.190407 136 119 150
-1.856513 -0.231790 -3.968838 121 134 150
-3.333415 0.378512 -4.128793 137 118 150
-1.532004 -0.015479 -4.110963 127 128 150
-0.899362 0.680572 -2.076976 144 111 150
0.211082 0.131839 0.724199 130 125 150
-0.036530 -0.133418 0.828151 124 131 150
-1.105316 0.352798 -3.579493 136 119 150
-1.574665 -0.432015 -2.758486 116 139 150
-2.162187 0.971987 -4.724534 152 103 150
-1.866006 0.618749 -3.948778 143 112 150
-1.584037 1.537617 -4.130458 166 89 150
-1.759558 1.444777 -3.626408 164 91 150
0.418177 0.361387 0.264888 136 119 150
0.107036 0.502929 0.357644 140 115 150
0.377556 0.400571 0.295658 137 118 150
-1.862177 -1.394082 -4.681013 91 164 150
-1.914865 0.427172 -3.551575 138 117 150
-1.763837 -0.571654 -2.883407 112 143 150
-2.496906 0.250144 -3.694109 133 122 150
-1.075961 0.475062 -1.777307 139 116 150
-2.767309 0.470347 -3.932066 139 116 150
-1.564239 1.402775 -3.755273 163 92 150
-1.538924 0.354539 -2.679719 136 119 150
-0.968827 0.626376 -1.593155 143 112 150
-1.062503 0.449358 -1.718135 138 117 150
-0.833978 0.586197 -1.462349 142 113 150
-0.992764 0.450837 -1.892491 138 117 150
-0.840872 0.590149 -1.459472 142 113 150
-0.972117 0.456838 -1.721437 139 116 150
-1.907455 -0.457557 -4.620857 115 140 150
-4.109444 1.242625 -3.916236 159 96 150
-0.833040 1.725348 -8.600655 171 84 150
0.776297 -0.715832 -5.426040 109 146 150
-0.787332 1.666005 -8.408856 169 86 150
-2.865514 0.385120 -4.534255 137 118 150
-2.253939 1.339603 -3.704683 161 94 150
-2.582451 1.122895 -3.596414 156 99 150
-2.035575 0.199888 -3.677963 132 123 150
-1.384971 1.480327 -4.037724 165 90 150
-2.718393 1.339904 -3.250939 161 94 150
-2.823495 1.038618 -3.741913 153 102 150
-3.927119 1.208640 -3.949902 158 97 150
-4.382779 0.782518 -3.952118 147 108 150
-2.068902 0.243322 -4.144076 133 122 150
-1.788194 -0.589946 -3.938443 112 143 150
-0.360332 -0.272805 0.613969 120 135 150
0.025040 -0.008920 0.864735 127 128 150
-1.988522 0.913277 -4.522863 150 105 150
-4.280657 1.236071 -4.150290 159 96 150
-1.273813 0.444541 -5.004475 138 117 150
-3.041837 0.897842 -3.675042 150 105 150
-1.960316 0.478837 -4.545085 139 116 150
-1.498476 1.449899 -3.672376 164 91 150
-1.582599 0.703978 -2.654660 145 110 150
-3.553184 0.323426 -4.239772 135 120 150
-1.362728 1.061608 -2.240672 154 101 150
-0.855164 0.503318 -1.773633 140 115 150
-1.636286 0.443006 -2.728364 138 117 150
0.416267 0.523275 1.394140 140 115 150
-2.063121 1.479909 -4.406312 165 90 150
-0.965379 0.625242 -1.626933 143 112 150
-0.969126 0.626859 -1.625000 143 112 150
-1.032175 0.410537 -1.684248 137 118 150
-1.033623 0.418617 -1.687451 138 117 150
-0.987136 0.412835 -1.653105 138 117 150
-2.001358 1.392782 -4.074964 163 92 150
-2.029969 1.071277 -2.891305 154 101 150
-1.875831 1.025273 -3.942086 153 102 150
-0.135142 0.070370 -0.539151 129 126 150
-0.603154 -0.294571 0.118818 119 136 150
-1.865833 0.919824 -3.940017 150 105 150
-4.608452 1.041695 -4.342789 154 101 150
-2.241412 0.627832 -5.374832 143 112 150
-2.609658 1.440929 -3.429386 164 91 150
-4.703533 0.713020 -4.086831 145 110 150
-3.681836 1.410554 -3.529883 163 92 150
-2.095666 1.406439 -3.363811 163 92 150
0.316057 0.115363 0.879298 130 125 150
-0.431371 -0.284477 0.595384 120 135 150
0.740526 0.436261 1.506583 138 117 150
-2.263213 1.443363 -3.652004 164 91 150
-1.865915 0.581224 -3.957757 142 113 150
-2.153954 -0.562837 -3.777602 113 142 150
-1.962403 0.164593 -4.054918 131 124 150
-0.708612 0.080734 -0.659932 129 126 150
-0.233436 -0.383936 1.178687 117 138 150
-0.524439 -0.199076 -0.324282 122 133 150
-0.407687 -0.069853 0.434060 125 130 150
-0.963692 0.523904 -2.305551 140 115 150
-0.974833 0.527044 -2.311577 140 115 150
-0.860324 0.721498 -1.987343 145 110 150
-1.470881 1.198287 -2.534152 158 97 150
-0.852354 0.727198 -2.000574 146 109 150
-3.110830 1.657982 -3.451482 169 86 150
-2.782015 0.356210 -3.971170 136 119 150
0.067313 0.024397 -0.055888 128 127 150
-0.047659 0.085942 -0.505522 129 126 150
-1.623183 -0.660530 -2.806053 110 145 150
-1.896454 -0.269153 -4.581228 120 135 150
-0.173646 0.135263 -1.113563 130 125 150
-0.623338 -0.208788 -0.626686 122 133 150
-2.013477 0.246722 -4.095402 133 122 150
-1.802703 0.182644 -4.078318 132 123 150
-1.918028 0.200337 -4.020460 132 123 150
-2.464443 0.299918 -3.804507 135 120 150
-2.167068 -0.056334 -3.854848 126 129 150
-1.867477 -0.535694 -4.004053 113 142 150
-1.746805 -1.261685 -3.997594 95 160 150
-1.782577 -1.277181 -4.033815 94 161 150
-2.660820 1.098174 -4.509964 155 100 150
-1.703509 -0.340859 -2.808269 118 137 150
-0.640568 -0.000678 -0.475675 127 128 150
-1.627619 -1.076201 -2.851290 100 155 150
-2.938988 0.878461 -3.591676 149 106 150
-1.850796 0.148498 -4.059123 131 124 150
-2.018483 0.205386 -3.659504 132 123 150
-2.044748 -1.171531 -4.063659 97 158 150
-0.298160 0.199205 -1.100613 132 123 150
-0.737193 0.713997 -0.117252 145 110 150
-0.690604 -0.009515 -0.516628 127 128 150
-0.569663 -0.018780 -0.600291 127 128 150
-0.248342 0.194946 -1.126035 132 123 150
-1.166246 0.607171 -1.882293 142 113 150
-2.041594 -0.292043 -3.763878 120 135 150
-2.126715 -0.292066 -3.825221 120 135 150
-2.070785 -0.688519 -5.111017 109 146 150
-0.992334 -0.807157 -3.333868 106 149 150
-1.912255 1.332205 -3.037371 161 94 150
-1.379938 -0.055015 -2.634688 126 129 150
-1.706347 -1.003332 -2.870522 101 154 150
-2.295341 0.197240 -5.208280 132 123 150
-1.494364 1.478688 -12.262591 165 90 150
-2.479616 -0.874485 -4.360623 105 150 150
-0.194001 0.354597 -9.205701 136 119 150
-4.313431 0.947088 -3.903124 151 104 150
-1.922400 -0.374927 -4.044758 117 138 150
-2.781223 0.209805 -4.789855 132 123 150
-3.380516 0.596367 -4.294558 142 113 150
-1.935015 0.165612 -4.572260 131 124 150
-2.611599 0.300563 -3.996729 135 120 150
-3.141122 -0.965576 -4.946232 102 153 150
-1.938180 1.690975 -4.231149 170 85 150
-1.022567 0.472829 -1.710332 139 116 150
-0.924881 0.570468 -1.850914 142 113 150
-1.918804 1.343730 -2.996789 161 94 150
-1.129952 1.273320 -3.152694 159 96 150
-1.713324 1.282807 -2.667064 160 95 150
-2.610430 1.408148 -3.617809 163 92 150
-1.083173 0.403839 -2.003493 137 118 150
-1.103420 0.414678 -2.004609 138 117 150
-0.070235 0.091127 -0.050732 129 126 150
-0.150569 0.053412 -0.460994 128 127 150
-0.701690 -0.051893 -0.778332 126 129 150
-0.823059 0.084982 -0.766360 129 126 150
-1.560589 0.630184 -2.643361 143 112 150
-2.520527 1.480161 -3.268854 165 90 150
-0.946345 0.613794 -1.826129 143 112 150
-0.840300 0.589043 -1.461409 142 113 150
-2.705812 0.698027 -3.881202 145 110 150
-2.526975 1.152123 -3.778015 156 99 150
-0.505183 0.076966 -0.805155 129 126 150
0.017305 -0.095725 0.833382 125 130 150
0.735888 0.564938 1.500235 141 114 150
-0.298265 -0.050310 0.695251 126 129 150
-0.353175 -0.335067 0.533951 118 137 150
-0.092611 -0.287385 1.207701 120 135 150
0.279218 0.214851 0.793273 132 123 150
0.398196 0.686627 1.183221 145 110 150
0.368737 0.010202 1.321150 127 128 150
-0.362922 -0.035952 0.627530 126 129 150
0.018146 0.087162 0.751201 129 126 150
-0.297338 0.006400 0.676190 127 128 150
0.000767 0.100013 0.834216 130 125 150
-0.028650 -0.274754 0.982793 120 135 150
1.907081 0.655184 1.962790 144 111 150
-0.093949 0.087752 0.040979 129 126 150
0.891403 -0.321869 1.943496 119 136 150
-0.344290 0.135748 0.624226 130 125 150
0.655088 -0.004426 1.784096 127 128 150
0.737569 0.566400 1.512669 141 114 150
0.667056 0.001328 1.888203 127 128 150
-0.432658 -0.216058 0.610710 121 134 150
0.028209 0.041457 -0.072334 128 127 150
-0.465303 -0.304331 0.588166 119 136 150
0.055105 0.029187 -0.034893 128 127 150
0.065314 0.023233 -0.052126 128 127 150
0.059348 0.027437 -0.039820 128 127 150
-0.094984 0.092407 0.010334 129 126 150
0.280721 0.252088 0.879237 133 122 150
-0.036924 -0.134917 0.835718 124 131 150
0.156484 0.090816 -0.019514 129 126 150
0.057738 0.076281 0.028804 129 126 150
-0.231251 0.070696 -0.053829 129 126 150
-0.066577 0.102355 0.106762 130 125 150
-0.402495 -0.009952 0.332127 127 128 150
-0.162568 0.099098 -0.153890 130 125 150
0.112120 0.089582 -0.269273 129 126 150
0.060912 0.025986 -0.048961 128 127 150
-0.487905 -0.056382 0.302710 126 129 150
0.311178 0.439581 0.375845 138 117 150
-0.104209 0.091407 0.072418 129 126 150
-0.255163 -0.059845 0.532830 125 130 150
0.070213 -0.023066 1.004708 126 129 150
0.451297 0.385026 1.073688 137 118 150
-0.205420 -0.142430 0.918915 123 132 150
0.739186 0.567454 1.522749 141 114 150
-0.057852 0.051322 0.829387 128 127 150
0.095369 0.041537 0.802591 128 127 150
-0.165792 -0.453759 0.992378 115 140 150
0.116985 0.220748 0.252954 133 122 150
0.112937 0.100214 -0.191475 130 125 150
-0.409463 -0.134868 0.415014 124 131 150
-0.409211 0.048793 0.339040 128 127 150
0.066578 0.136200 0.539058 130 125 150
-0.072199 0.096596 -0.043586 129 126 150
0.204326 0.267687 0.782317 134 121 150
-0.247322 0.068102 -0.562521 129 126 150
-0.091682 0.083937 0.043679 129 126 150
-0.227820 0.064202 -0.528705 129 126 150
-0.199592 0.078294 -0.563654 129 126 150
-0.284170 0.059331 -0.553580 129 126 150
-0.167581 0.082392 -0.575988 129 126 150
-0.374433 -0.129922 -0.153844 124 131 150
-0.086506 0.081782 0.025774 129 126 150
-0.080453 0.045940 -0.366249 128 127 150
-0.096030 0.084683 -0.029908 129 126 150
-0.150635 0.042280 -0.480993 128 127 150
-0.262585 0.037971 -0.586622 128 127 150
-0.200434 0.091418 -0.632778 129 126 150
-2.151429 1.392535 -3.474685 163 92 150
-1.066286 0.466243 -1.776598 139 116 150
-1.365503 0.011689 -2.195018 127 128 150
-0.256250 0.069637 -0.558113 129 126 150
-0.452987 -0.044846 -0.360211 126 129 150
-0.391504 0.618248 0.447081 143 112 150
-3.635123 1.133548 -3.795991 156 99 150
-0.055904 0.147938 -0.644349 131 124 150
-0.263728 0.053502 -0.524580 128 127 150
0.057133 0.132958 -0.256865 130 125 150
-0.702997 -0.298248 -0.510033 119 136 150
-1.112957 0.143568 -3.332946 131 124 150
-1.073593 0.695797 -2.038961 145 110 150
-0.837503 0.681429 -1.798536 144 111 150
-0.376570 0.064989 -0.755693 129 126 150
-0.118338 0.631214 0.403488 143 112 150
-0.038453 0.082515 0.042796 129 126 150
0.039535 0.029261 -0.069711 128 127 150
-0.053477 0.081474 -0.104318 129 126 150
-0.263731 0.053314 -0.390010 128 127 150
-0.642098 0.064123 -0.408242 129 126 150
-0.909443 0.741250 -1.959534 146 109 150
-0.462293 0.144583 -1.069508 131 124 150
-0.798123 0.144902 -1.007246 131 124 150
-0.242476 0.154577 -1.069241 131 124 150
-1.058362 0.732806 -2.079250 146 109 150
-0.597837 -0.282367 -0.587832 120 135 150
-0.677566 0.666250 -0.187590 144 111 150
-0.328437 0.081647 -0.841316 129 126 150
-0.621932 0.132965 -0.781666 130 125 150
-0.934475 0.443400 -1.695776 138 117 150
-0.884831 0.651874 -2.001845 144 111 150
-4.095736 0.876193 -3.963707 149 106 150
-1.933403 0.106281 -3.605658 130 125 150
-1.798991 0.764507 -3.979406 146 109 150
-2.020946 1.349760 -3.121942 161 94 150
-2.289538 1.118318 -3.007184 156 99 150
-4.035227 1.148241 -4.119339 156 99 150
-0.525288 -0.335284 0.306552 118 137 150
-0.642538 -0.042992 -0.711965 126 129 150
-0.635170 -0.312061 0.243632 119 136 150
-0.298997 0.048486 -0.555586 128 127 150
-1.035451 0.631150 -1.886660 143 112 150
-0.682276 0.076891 -0.711484 129 126 150
-0.727727 -0.149800 -0.783537 123 132 150
-0.480663 0.107948 -0.856772 130 125 150
-0.981228 0.672575 -2.129782 144 111 150
-0.981393 0.616149 -1.599838 143 112 150
-0.829220 -0.207089 -0.847753 122 133 150
-0.656535 0.071911 -0.713940 129 126 150
-0.371385 0.255247 -1.053720 134 121 150
-0.620691 0.601762 -0.926912 142 113 150
-1.020482 0.434700 -1.741644 138 117 150
-1.020230 0.695281 -1.957540 145 110 150
-0.949157 0.666549 -2.098791 144 111 150
-0.856602 -0.239716 -0.848330 121 134 150
-0.215402 0.147174 -0.994304 131 124 150
-0.917488 0.357392 -1.653042 136 119 150
-0.865058 0.762864 -1.963180 146 109 150
-0.879786 0.387446 -1.608434 137 118 150
-1.457837 0.825883 -2.082835 148 107 150
-1.082430 0.426543 -1.996911 138 117 150
-1.719299 1.185738 -2.687345 157 98 150
-0.558977 0.210843 -1.944409 132 123 150
-0.969778 0.621000 -1.607322 143 112 150
-1.419125 0.592056 -2.580912 142 113 150
-0.948998 0.537148 -1.820387 141 114 150
-1.052127 0.477620 -1.897792 139 116 150
-1.219787 0.759482 -1.999614 146 109 150
-0.889460 0.552874 -1.834452 141 114 150
-1.149909 0.668264 -2.001615 144 111 150
-0.993255 0.593485 -1.913361 142 113 150
-0.188787 0.083560 -0.673294 129 126 150
-0.978640 0.611496 -1.873178 143 112 150
-1.146855 0.670200 -1.847910 144 111 150
-1.922175 0.353388 -4.020883 136 119 150
-0.828054 0.505942 -1.776607 140 115 150
-0.912607 0.660144 -2.003384 144 111 150
-0.686025 0.028629 -0.604058 128 127 150
-0.682138 -0.072086 -0.838143 125 130 150
-0.746349 0.143520 -0.960888 131 124 150
-1.035741 0.492402 -1.942127 140 115 150
-1.094687 0.454406 -1.989196 139 116 150
-0.824326 0.159479 -0.982050 131 124 150
-0.807326 0.693002 -0.202125 145 110 150
-1.012255 0.440577 -1.729043 138 117 150
-1.935438 1.330270 -3.385601 161 94 150
-1.119017 0.675207 -2.036717 144 111 150
-1.802571 1.180323 -2.723668 157 98 150
-1.940706 1.359635 -3.010556 162 93 150
-1.511791 0.291537 -2.670316 134 121 150
-2.246248 1.448117 -3.256609 164 91 150
-2.097127 1.383107 -3.317352 162 93 150
-1.577605 0.252897 -2.706334 133 122 150
-1.319419 0.748595 -1.342571 146 109 150
-0.846073 0.703383 -1.800443 145 110 150
-2.359511 1.540881 -4.914341 166 89 150
-0.853507 0.661781 -0.237068 144 111 150
-0.810466 0.990104 0.217175 152 103 150
-0.607172 0.732841 -0.073095 146 109 150
-0.233120 0.057204 0.007712 128 127 150
-0.016939 0.561372 0.332620 141 114 150
-0.139040 0.135709 -0.777561 130 125 150
-0.050477 0.141796 -0.837057 131 124 150
-0.139146 0.082417 -0.001949 129 126 150
-0.067199 0.152953 -0.806777 131 124 150
-0.199774 0.045932 -0.069360 128 127 150
-0.058152 0.146680 -0.828581 131 124 150
-0.372324 -0.226216 0.681401 121 134 150
-0.294532 -0.165500 0.686651 123 132 150
-2.484938 1.143723 -3.746348 156 99 150
-0.821352 0.502004 -1.775672 140 115 150
-1.005803 0.369161 -1.601484 136 119 150
-0.815129 0.497438 -1.776129 140 115 150
-3.246049 0.773756 -3.927753 147 108 150
-1.987819 1.348840 -2.957492 161 94 150
-2.023082 1.388447 -3.454385 162 93 150
-2.852502 1.046621 -3.756558 154 101 150
-4.220744 0.745982 -4.296148 146 109 150
-0.149772 0.121556 -1.058082 130 125 150
-1.369093 0.009418 -2.198339 127 128 150
-0.953018 0.682906 -2.140391 144 111 150
-0.639242 -0.050131 -0.708534 126 129 150
-0.702153 0.028073 -0.525920 128 127 150
-0.649808 0.022962 -0.559806 128 127 150
-1.815262 0.476312 -2.829415 139 116 150
-2.394752 0.819459 -3.600805 148 107 150
-1.693988 0.565837 -2.745525 141 114 150
-2.527508 1.424237 -3.591036 163 92 150
-2.648474 0.797686 -3.720855 147 108 150
-1.004588 0.515447 -1.765069 140 115 150
-1.102032 0.713552 -2.049702 145 110 150
-1.007374 0.729013 -2.144750 146 109 150
-1.977026 1.352848 -3.176044 161 94 150
-0.870862 0.419683 -1.683914 138 117 150
-0.589035 0.585127 -0.931992 142 113 150
-0.221486 0.089578 -0.814968 129 126 150
-0.677493 -0.258302 -0.671023 120 135 150
-0.695998 -0.034065 -0.839534 126 129 150
-0.863889 0.113182 -0.799956 130 125 150
-0.937684 0.583699 -1.564222 142 113 150
-0.352494 0.085945 -0.825423 129 126 150
-2.347458 0.801390 -3.763603 147 108 150
-3.170785 0.775385 -4.019667 147 108 150
-3.248826 0.542253 -4.249833 141 114 150
-2.434871 0.855399 -3.681722 149 106 150
-1.597806 0.061850 -2.736004 129 126 150
-0.029842 0.167222 -0.559534 131 124 150
-0.073390 0.122384 -0.642360 130 125 150
-0.101724 0.112753 -0.340026 130 125 150
-0.388527 -0.197948 -0.148538 122 133 150
0.008896 0.165689 -0.402502 131 124 150
-0.312657 0.053149 -0.390503 128 127 150
-2.695967 1.313261 -3.104985 160 95 150
-1.400408 1.406690 -4.070113 163 92 150
-0.992593 0.596649 -1.823626 142 113 150
-0.790581 0.619940 -0.319102 143 112 150
-0.580704 0.089186 -0.762020 129 126 150
-0.255124 0.097519 -0.886348 129 126 150
-0.653969 0.072084 -0.726530 129 126 150
-0.945752 0.685457 -2.003217 144 111 150
-1.053678 0.628677 -1.972048 143 112 150
-0.924482 0.648076 -2.040490 144 111 150
-1.619383 1.208844 -2.625035 158 97 150
-0.691945 -0.147356 0.373965 123 132 150
-0.162289 -0.195285 0.955363 122 133 150
-0.110818 0.088759 -0.422746 129 126 150
-0.496229 -0.212168 0.303593 122 133 150
-0.230839 -0.068649 1.083830 125 130 150
-0.169772 -0.197377 1.002890 122 133 150
-0.723960 -0.398687 0.647869 117 138 150
-0.717054 0.106107 -0.520319 130 125 150
-0.640299 0.023903 -0.597232 128 127 150
-0.963190 0.119153 -0.801004 130 125 150
-0.138942 0.068531 -0.441205 129 126 150
-0.192115 0.088287 -0.206915 129 126 150
0.379014 0.370939 0.285130 136 119 150
0.439095 0.556109 0.812890 141 114 150
0.381636 0.383822 0.305202 137 118 150
-0.472592 -0.137959 -0.120155 123 132 150
-0.154973 0.055795 -0.443812 128 127 150
-0.496115 -0.212506 0.305983 122 133 150
-0.923104 0.754544 -1.973084 146 109 150
-1.091559 0.374480 -1.693798 137 118 150
-2.422112 0.911504 -3.753060 150 105 150
-1.589147 0.171188 -2.714660 131 124 150
-2.679980 0.718524 -3.757329 145 110 150
-0.852918 0.722018 -2.066896 145 110 150
-3.019017 0.879762 -3.659807 149 106 150
-1.016748 0.904212 -1.882026 150 105 150
-0.171478 0.135940 -1.114481 130 125 150
-0.224038 0.155396 -1.098407 131 124 150
-0.715660 -0.187574 -0.809376 122 133 150
-0.926140 0.456632 -1.725161 139 116 150
-0.188719 0.070505 -0.030174 129 126 150
0.047341 -0.107462 0.830495 124 131 150
-0.905173 0.542719 -1.827687 141 114 150
-1.863054 1.246286 -2.760454 159 96 150
-1.501027 0.613203 -2.622952 143 112 150
-2.792144 0.798892 -3.574082 147 108 150
-0.707498 -0.007353 -0.561826 127 128 150
-0.302046 0.197990 -1.105080 132 123 150
-0.529934 0.005980 -0.314613 127 128 150
-0.454296 0.109305 -2.062860 130 125 150
-1.044302 0.503057 -1.957365 140 115 150
-0.886863 0.729374 -1.947480 146 109 150
-0.982338 0.467432 -1.733443 139 116 150
-0.995221 0.707466 -1.904516 145 110 150
-1.361181 0.009967 -2.195669 127 128 150
-2.893350 0.266033 -3.827330 134 121 150
-2.104957 1.369724 -3.596015 162 93 150
-3.290024 0.454294 -4.042681 139 116 150
-2.446624 0.862072 -3.688921 149 106 150
-2.310772 0.406619 -3.726044 137 118 150
-2.089874 1.362587 -3.583960 162 93 150
-1.912341 0.342002 -4.113194 136 119 150
4.281776 0.217735 -1.592536 133 122 150
4.018621 0.165242 -2.043331 131 124 150
4.138377 -0.043255 -1.840503 126 129 150
4.225214 0.175611 -1.639207 131 124 150
5.243233 0.813153 -2.801898 148 107 150
4.630053 0.644607 -2.500275 143 112 150
2.377246 0.797599 -2.463377 147 108 150
1.420230 0.427098 -2.037555 138 117 150
2.645353 0.826605 -2.744645 148 107 150
4.239752 0.160195 -1.644988 131 124 150
4.050094 0.194231 -1.945574 132 123 150
4.004945 0.214335 -2.023472 132 123 150
4.279428 0.084528 -1.697874 129 126 150
4.102520 0.095460 -1.982647 129 126 150
3.834005 0.470717 -2.084018 139 116 150
3.047746 0.491875 -2.316327 140 115 150
3.342637 0.511352 -2.544086 140 115 150
3.126421 0.555718 -2.308789 141 114 150
4.070908 -0.279931 -1.850734 120 135 150
5.288945 0.831877 -3.810286 148 107 150
4.854942 0.646626 -3.390497 143 112 150
4.370421 0.100595 -1.861040 130 125 150
4.788047 0.542496 -3.010548 141 114 150
4.216792 0.235735 -1.568760 133 122 150
4.076854 0.167834 -2.007841 131 124 150
5.268541 0.881791 -3.422370 149 106 150
4.397006 0.266010 -1.751082 134 121 150
-1.747373 -1.116418 -4.147062 99 156 150
-2.127184 -0.950346 -5.262838 103 152 150
-2.159446 -1.090187 -5.212433 99 156 150
3.264466 0.534930 -2.297668 141 114 150
3.310557 0.464302 -2.563062 139 116 150
3.974682 0.291620 -1.910687 134 121 150
4.147170 -0.124424 -1.798106 124 131 150
3.825917 0.160714 -2.460159 131 124 150
4.011059 -0.139789 -1.891324 123 132 150
3.068802 0.501930 -2.318179 140 115 150
3.141636 -0.032275 -2.376808 126 129 150
3.233168 0.317276 -2.295998 135 120 150
3.270556 0.430748 -2.280107 138 117 150
4.092819 0.148186 -1.936535 131 124 150
4.056447 0.174982 -1.997314 131 124 150
4.226419 0.141929 -1.691419 131 124 150
2.959650 0.696498 -2.287338 145 110 150
3.143633 0.191721 -2.431453 132 123 150
1.605915 0.694580 -1.656293 145 110 150
1.626481 0.678627 -1.457337 144 111 150
3.160296 0.256912 -2.333565 134 121 150
2.176927 -0.479434 -2.773863 115 140 150
1.940500 0.425433 -2.076441 138 117 150
2.857919 0.792181 -2.434853 147 108 150
2.726182 0.791584 -2.158612 147 108 150
3.975552 0.274142 -1.986797 134 121 150
4.164909 -0.105662 -1.863442 124 131 150
4.126621 -0.045629 -1.818674 126 129 150
4.006331 -0.097034 -1.942734 125 130 150
3.996444 0.163200 -2.133076 131 124 150
4.172017 -0.281252 -1.735968 120 135 150
3.101196 0.698264 -2.189266 145 110 150
3.879761 0.144455 -2.335164 131 124 150
4.146187 -0.123504 -1.817151 124 131 150
1.709040 0.516977 -2.268359 140 115 150
1.765834 0.498079 -2.223836 140 115 150
1.699915 0.523093 -2.273551 140 115 150
1.389929 0.330532 -1.827119 135 120 150
3.986281 -0.069360 -1.849671 125 130 150
4.144645 0.192342 -1.768003 132 123 150
4.222551 -0.284237 -2.058836 120 135 150
3.531170 0.952632 -3.126113 151 104 150
1.419284 0.652814 -2.295557 144 111 150
-2.137085 0.505386 -4.893799 140 115 150
1.499348 0.077484 -2.945545 129 126 150
1.675920 0.309798 -2.773596 135 120 150
5.179734 0.702394 -3.372426 145 110 150
4.170644 0.216986 -1.641127 133 122 150
4.978889 0.748757 -3.132807 146 109 150
4.026048 0.049075 -1.883270 128 127 150
3.204860 0.415539 -2.274873 138 117 150
4.100177 0.229969 -1.699496 133 122 150
4.399128 0.271159 -1.718927 134 121 150
3.069089 0.126410 -2.144605 130 125 150
4.180100 0.168655 -1.652903 131 124 150
3.994843 -0.050923 -1.897536 126 129 150
5.311379 0.803268 -2.400367 147 108 150
3.150061 0.893072 -1.958479 150 105 150
4.026674 0.297022 -1.737631 135 120 150
3.225523 0.557842 -2.358422 141 114 150
5.155812 0.687677 -3.357636 145 110 150
3.454524 -1.078032 -3.210301 100 155 150
4.153795 0.243854 -1.645617 133 122 150
4.167622 0.274906 -1.584022 134 121 150
3.320227 0.039961 -2.320976 128 127 150
3.311859 -0.017912 -2.249659 127 128 150
3.312164 -0.018140 -2.248000 127 128 150
1.653721 0.331047 -2.748562 135 120 150
2.955805 0.298741 -2.460615 135 120 150
3.208139 0.122786 -2.226695 130 125 150
2.431960 0.783175 -2.202413 147 108 150
3.126180 0.159236 -2.241945 131 124 150
3.288414 0.216420 -2.516767 133 122 150
3.739028 -1.086407 -3.405976 99 156 150
4.403913 0.146037 -1.817278 131 124 150
4.289045 -0.171372 -1.917220 123 132 150
4.054016 0.139206 -2.014344 131 124 150
4.303243 0.139005 -1.647881 131 124 150
3.357763 0.595097 -2.481833 142 113 150
3.038570 0.413339 -2.595493 138 117 150
4.272021 0.064623 -1.804122 129 126 150
4.174603 0.178409 -1.663229 132 123 150
5.374903 0.857384 -3.010124 149 106 150
4.237400 0.094245 -1.684884 129 126 150
0.746126 1.577507 -6.052056 167 88 150
4.452402 0.314099 -1.805712 135 120 150
4.440509 0.453742 -1.895591 139 116 150
4.428476 0.060292 -1.917270 129 126 150
4.237510 0.094265 -1.686859 129 126 150
3.959099 0.388533 -1.861552 137 118 150
4.004655 0.067209 -1.959991 129 126 150
4.190059 0.360468 -1.773428 136 119 150
5.388248 0.808805 -2.714812 148 107 150
4.850677 0.630099 -2.670693 143 112 150
4.229322 0.113191 -1.708825 130 125 150
4.279682 0.146607 -1.652152 131 124 150
4.163492 0.165796 -1.732318 131 124 150
4.037484 0.179736 -2.023537 132 123 150
4.160328 -0.067012 -1.863635 125 130 150
4.837455 0.413806 -2.574287 138 117 150
4.369055 -0.054503 -1.964622 126 129 150
4.260759 0.161693 -1.629989 131 124 150
4.430521 0.215401 -1.818123 132 123 150
4.155513 0.242861 -1.646092 133 122 150
4.952432 0.806240 -2.449497 148 107 150
3.438341 -1.097361 -3.294974 99 156 150
4.271610 0.146242 -1.626867 131 124 150
4.281027 0.078118 -1.715415 129 126 150
2.298006 1.520145 -6.211397 166 89 150
2.641238 1.433915 -6.628614 164 91 150
3.011162 0.478744 -6.942334 139 116 150
4.005462 0.007360 -1.899746 127 128 150
3.975200 0.236659 -1.956411 133 122 150
4.152715 0.172381 -1.674932 131 124 150
4.338398 -0.121795 -1.958885 124 131 150
4.220491 0.224615 -1.599909 133 122 150
5.103406 0.789517 -2.029653 147 108 150
4.265675 0.248406 -1.585819 133 122 150
4.247362 0.293887 -1.608628 134 121 150
4.629966 0.557964 -2.586529 141 114 150
4.184032 0.187101 -1.642216 132 123 150
4.222260 0.158594 -1.638500 131 124 150
4.177945 0.193899 -1.662368 132 123 150
4.665294 0.551323 -2.565571 141 114 150
4.846226 0.670851 -3.390368 144 111 150
3.202570 0.459880 -2.241929 139 116 150
3.175308 0.439304 -2.307529 138 117 150
4.936450 0.691896 -2.629988 145 110 150
5.146473 0.848312 -2.382686 149 106 150
4.862140 0.681324 -3.319299 144 111 150
5.479940 0.815125 -2.246758 148 107 150
0.494818 -0.655174 1.432880 110 145 150
4.163082 -0.284368 -1.774287 120 135 150
4.435978 0.262294 -2.279231 134 121 150
4.211550 0.174394 -1.676325 131 124 150
4.771281 0.683651 -2.665021 144 111 150
4.190851 -0.061840 -1.628752 125 130 150
3.323216 0.588028 -3.025104 142 113 150
4.064543 0.151765 -1.924941 131 124 150
4.250754 0.279925 -1.553204 134 121 150
4.414226 0.468502 -1.696517 139 116 150
4.435592 0.402297 -1.846667 137 118 150
4.066511 -0.159739 -1.821228 123 132 150
4.301128 -0.152978 -1.912682 123 132 150
4.964279 0.765849 -2.600945 147 108 150
5.115144 0.311462 -1.301698 135 120 150
4.233169 0.098967 -1.686331 130 125 150
6.471107 -0.877172 -2.078560 105 150 150
6.005475 -0.720057 -1.652099 109 146 150
4.789507 0.597943 -3.420068 142 113 150
4.336735 0.144740 -1.742775 131 124 150
4.041773 0.164137 -1.964761 131 124 150
4.034281 -0.110025 -1.885125 124 131 150
4.015650 -0.109362 -1.819701 124 131 150
3.140557 0.373582 -2.317830 137 118 150
4.193493 0.114754 -1.750520 130 125 150
3.288030 0.474555 -2.657446 139 116 150
4.245185 -0.233193 -1.899771 121 134 150
4.442520 0.148292 -1.915376 131 124 150
4.345018 -0.017341 -1.922356 127 128 150
-0.734716 0.005145 -0.863098 127 128 150
6.123157 -0.845431 -1.663064 105 150 150
6.159749 -0.690719 -1.624594 109 146 150
5.659232 -0.679816 -1.430560 110 145 150
5.998674 -0.694665 -1.613264 109 146 150
4.273149 0.094967 -1.715295 129 126 150
4.243732 0.093904 -1.788790 129 126 150
4.153697 -0.052468 -1.911498 126 129 150
4.332316 -0.021073 -1.884024 126 129 150
2.935374 0.335765 -2.440763 136 119 150
3.160373 -0.014035 -2.016678 127 128 150
3.018788 0.025676 -2.253952 128 127 150
2.984440 0.177737 -2.365300 132 123 150
3.336778 0.409438 -3.275121 137 118 150
4.238224 -0.229053 -1.852607 121 134 150
6.011794 -0.683128 -1.696838 110 145 150
4.288280 0.100475 -1.693550 130 125 150
4.377488 -0.035375 -2.033543 126 129 150
4.287498 0.199487 -1.601834 132 123 150
4.222042 0.183316 -1.632580 132 123 150
2.438802 0.469197 -7.104488 139 116 150
5.440322 -0.513355 -1.162600 114 141 150
4.743225 -0.349480 -0.691053 118 137 150
4.678837 -0.333573 -0.632842 118 137 150
4.900402 -0.397141 -0.799784 117 138 150
6.240715 -0.797551 -1.646919 107 148 150
1.508826 0.443356 -2.039355 138 117 150
2.924309 0.636782 -2.342908 143 112 150
